 0.0024875758979 -0.0125044837544  -0.377022992466 1763542959.74
 0.0018721448782 -0.0120812201119  -0.376812140269 1763542959.77
0.00158231265616 -0.0118812097634  -0.377231325029 1763542959.81
 0.0016109716158 -0.0119304487942  -0.378136526988 1763542959.84
0.00190197338282 -0.0122073637773  -0.379275272866 1763542959.87
0.00235815888776 -0.0126458107567  -0.380329835133 1763542959.91
0.00286012496794 -0.0131479478292  -0.380978585193 1763542959.94
0.00329171977304 -0.0136044825652  -0.380963586841 1763542959.97
0.00356582924541 -0.0139178752493  -0.380149555406 1763542960.01
0.00364353321389 -0.0140232307011  -0.378559908893 1763542960.04
0.00354136192432 -0.0139020674561  -0.376380051045 1763542960.07
0.00332463608399 -0.0135857861053  -0.373925358584 1763542960.11
0.00308872167794 -0.0131480617105  -0.371579791033 1763542960.14
0.00293331616927 -0.0126879740619  -0.369718424367 1763542960.17
0.00293663006011 -0.0123078243126  -0.368631620655 1763542960.21
 0.0031360783788 -0.0120907438896  -0.368468838461 1763542960.24
0.00352006312286 -0.0120831237499  -0.369216066806 1763542960.27
0.00403235904932 -0.0122856358399  -0.370713244262 1763542960.31
0.00458744117718 -0.0126545239384  -0.372708300508 1763542960.34
0.00509257022796 -0.0131124401629  -0.374934720156 1763542960.37
0.00547103180185 -0.0135659757171  -0.377192171999 1763542960.41
0.00568079816737 -0.0139256577728  -0.379406948643 1763542960.44
0.00572404134701 -0.0141238343445  -0.381651977231 1763542960.47
0.00564516926002 -0.0141265808732  -0.384114833647 1763542960.51
0.00551793894552 -0.0139373408869  -0.387014915965 1763542960.54
0.00542502851437 -0.0135920675967  -0.390484941252 1763542960.57
0.00543543772871 -0.0131476477732  -0.394443775154 1763542960.61
0.00558564662501 -0.0126668532195  -0.398493843454 1763542960.64
0.00586941952319 -0.0122036168691  -0.401874466134 1763542960.67
0.00623879613456 -0.0117919611245  -0.403491768365 1763542960.71
0.00661582123217 -0.0114406141268  -0.402028329079 1763542960.74
0.00691174028287 -0.0111336977838  -0.396115743611 1763542960.77
0.00704848681595 -0.0108364059201  -0.384536236184 1763542960.81
0.00697682391576 -0.0105037110249   -0.36641026471 1763542960.84
0.00668659131463 -0.0100899494983  -0.341328651768 1763542960.87
 0.00620681812677 -0.00955746829272   -0.309400264183 1763542960.91
 0.00559630493849 -0.00888309035711    -0.27120674347 1763542960.94
 0.00492781201392 -0.00806175444287   -0.227678883482 1763542960.97
 0.00427047408843 -0.00710720299765   -0.179928548922 1763542961.01
 0.00367512230222 -0.00604999850269   -0.129080057649 1763542961.04
 0.00316592557724 -0.00493343392056  -0.0761428444898 1763542961.07
 0.00273966287925 -0.00380806001959  -0.0219535497963 1763542961.11
 0.00237171287322 -0.00272559333807    0.032805669643 1763542961.14
  0.0020261799855 -0.00173293544036   0.0875286378887 1763542961.17
  0.00166690908831 -0.000866973605844     0.141580116519 1763542961.21
  0.00126653937439 -0.000150769972642     0.194205114641 1763542961.24
0.000811882693585 0.000408327570363    0.244488296201 1763542961.27
0.000305243478546 0.000818249969068    0.291383471663 1763542961.31
-0.000237642733222   0.00109929284988     0.333811733413 1763542961.34
-0.000791811360904   0.00127896441363      0.37080612943 1763542961.37
-0.00132807951372  0.00138533871312    0.401666788698 1763542961.4
-0.00181775867391  0.00144014996204    0.426086784183 1763542961.43
-0.00223634419589  0.00145317202736    0.444216231237 1763542961.47
-0.00256587585307  0.00141938550514     0.45664760935 1763542961.5
-0.0027960255916  0.0013199527107   0.464324451114 1763542961.53
-0.00292420152147  0.00112714437006    0.468393148022 1763542961.57
-0.00295502942256 0.000812300742735     0.47002934112 1763542961.6
-0.00289950567607 0.000354985001649    0.470273819958 1763542961.63
 -0.00277397734253 -0.000248989645074     0.469908045744 1763542961.67
 -0.00259896924123 -0.000982821296051     0.469388475249 1763542961.7
-0.00239778843168 -0.00180866744912    0.468845230514 1763542961.73
-0.00219481819341 -0.00267253591252    0.468137881543 1763542961.77
-0.00201347165322 -0.00351318886713    0.466951734554 1763542961.8
-0.00187388827845 -0.00427321730013    0.464913100655 1763542961.83
-0.00179059415956 -0.00491000477366    0.461701378123 1763542961.87
-0.00177047117908 -0.00540438430701    0.457138675255 1763542961.9
-0.00181143502565 -0.00576531733172    0.451243289968 1763542961.93
-0.00190215727561 -0.00602971932917    0.444240697584 1763542961.97
-0.00202296864608 -0.00625741616579    0.436533582127 1763542962
-0.00214779839825 -0.00652196866781     0.42863951224 1763542962.04
-0.00224676526895 -0.00689866450059    0.421109879767 1763542962.07
-0.00228897965403 -0.00745133018659    0.414445934036 1763542962.11
 -0.0022452870302 -0.00821978694476    0.409027027935 1763542962.14
-0.00209096700916 -0.00920979149928    0.405062929183 1763542962.17
-0.00180858808425   -0.010387165054    0.402576963958 1763542962.21
-0.0013911334061 -0.0116774824649   0.401420778976 1763542962.24
-0.0008451651386 -0.0129721138693   0.401315680185 1763542962.27
-0.000193363246883   -0.0141405484022     0.401910908619 1763542962.31
0.000524521248681  -0.0150478357331    0.402846773927 1763542962.34
0.00125326850056 -0.0155748235181   0.403810779074 1763542962.37
0.00192699912423  -0.015637908761    0.40457756398 1763542962.41
0.00247723865563 -0.0152045732696   0.405027805312 1763542962.44
0.00284347927539 -0.0143013131877   0.405145859834 1763542962.47
0.00298459899127 -0.0130117987244   0.404999792334 1763542962.51
0.00288875806913 -0.0114650436218   0.404709917539 1763542962.54
 0.00257910141229 -0.00981557653833    0.404413080387 1763542962.57
 0.00211306236336 -0.00821946456545    0.404229756373 1763542962.61
 0.00157440082985 -0.00681097946604    0.404239775227 1763542962.64
  0.0010590248263 -0.00568444308367    0.404470219997 1763542962.67
0.000657479547877 -0.00488442630308     0.40489627715 1763542962.71
0.000438053121214 -0.00440541685245    0.405453185735 1763542962.74
0.000434375835622 -0.00419992475853    0.406055528448 1763542962.77
0.000640253253384 -0.00419235720052    0.406619157489 1763542962.81
 0.00101267657737 -0.00429524033923     0.40708097794 1763542962.84
 0.00148201729493 -0.00442453907018    0.407412436479 1763542962.87
 0.00196681852242 -0.00451168709702    0.407623765642 1763542962.91
 0.00238970389356 -0.00451111534292     0.40775776215 1763542962.94
 0.00269090617811 -0.00440318249947    0.407874011866 1763542962.97
  0.0028367198885 -0.00419317678958    0.408026733098 1763542963.01
0.00282156603753 -0.0039073482301   0.408241360139 1763542963.04
0.00266395127212  -0.003586832831   0.408496099832 1763542963.07
 0.00239799850414 -0.00328009001234    0.408714461398 1763542963.11
 0.00206309764544 -0.00303436751812    0.408772910149 1763542963.14
 0.00169439073583 -0.00288688730075     0.40852450632 1763542963.17
 0.00131624390548 -0.00285684983671     0.40783536112 1763542963.21
0.000939748002184 -0.00293974234964    0.406626977722 1763542963.24
0.000564004489592 -0.00310550936528    0.404914979955 1763542963.27
0.000179958011612 -0.00330168775167    0.402834004215 1763542963.31
-0.000224812666049  -0.00346161722196     0.400639944416 1763542963.34
-0.000661605232148  -0.00351654731824      0.39868425461 1763542963.37
-0.00113697928803 -0.00340927692294    0.397360200621 1763542963.4
-0.00164999669222 -0.00310631312282    0.397026966196 1763542963.44
 -0.0021901068183 -0.00260569896054    0.397923170277 1763542963.47
-0.00273570674632 -0.00193862023086    0.400085329776 1763542963.5
-0.00325384549964 -0.00116437048762    0.403287991025 1763542963.54
 -0.00370185290426 -0.000359803383087      0.40702007523 1763542963.57
-0.00403161227751 0.000394368093668    0.410506688432 1763542963.6
-0.00419668549178  0.00102741927377    0.412778271653 1763542963.63
-0.00416163567632  0.00148965715953    0.412780891268 1763542963.67
-0.00391190783133  0.00175845545305    0.409513969169 1763542963.7
-0.00346184413302  0.00183836202438    0.402175903489 1763542963.73
-0.00285819566592  0.00175587392223    0.390294843671 1763542963.77
-0.00217711971529  0.00155079614583    0.373822302402 1763542963.8
-0.0015141048429 0.00126680222916   0.353171839348 1763542963.83
-0.000968160751029  0.000943664146996     0.329193392957 1763542963.87
-0.000623330871112  0.000612717320564     0.303084627591 1763542963.9
-0.000531556599869  0.000295860718878     0.276251855072 1763542963.93
-0.000700856838733  7.25285548959e-06     0.250142374634 1763542963.97
 -0.00109175233141 -0.000243770854921     0.226075379244 1763542964
 -0.00162315516627 -0.000450050031848     0.205098576578 1763542964.03
 -0.00218693102484 -0.000605237918046     0.187892236838 1763542964.07
  -0.0026684043091 -0.000704040111623     0.174732706915 1763542964.1
 -0.00296859431024 -0.000743709291768     0.165515748813 1763542964.14
 -0.00302332765233 -0.000726032374661     0.159829028572 1763542964.17
 -0.00281487165265 -0.000658925436142     0.157055167192 1763542964.2
-0.00237341600378 -0.00055689693761    0.156483638097 1763542964.24
 -0.00176824525302 -0.000439970826485       0.1574117941 1763542964.27
  -0.0010910983947 -0.000331075968617     0.159221245607 1763542964.3
-0.000436189388571 -0.000252315051801     0.161423399372 1763542964.34
 0.000117971145232 -0.000220843308855     0.163674764565 1763542964.37
   0.0005206690196 -0.000245241229461     0.165767100925 1763542964.4
  0.00075279233933 -0.000323213382591     0.167599458987 1763542964.44
0.000822738222436   -0.000441190439    0.169139481712 1763542964.47
 0.000757028100621 -0.000576018337277     0.170381011414 1763542964.5
 0.000589392525624 -0.000698516717855     0.171304629764 1763542964.54
 0.000351898417378 -0.000778388221033     0.171847250208 1763542964.57
 7.03554813897e-05 -0.000789767093804     0.171886000809 1763542964.6
-0.000235686050693 -0.000716547100092     0.171240083439 1763542964.64
-0.000549827944233 -0.000556494527544      0.16969185919 1763542964.67
-0.000855125950866 -0.000323113900945     0.167025050899 1763542964.7
-0.00113227649443 -4.4466878516e-05    0.163073977427 1763542964.74
-0.00136111392819 0.000241246224875    0.157773958493 1763542964.77
-0.00152523119543 0.000492666210631    0.151200762359 1763542964.8
-0.00161799964083 0.000673331656638    0.143587578953 1763542964.84
-0.00164741137048 0.000758927753781     0.13531212559 1763542964.87
-0.00163735067215 0.000742035314796    0.126853402933 1763542964.9
-0.00162405335822  0.00063337692857    0.118725303274 1763542964.94
-0.00164816883791 0.000459444744451     0.11140031051 1763542964.97
-0.00174435457149 0.000257178090269    0.105239158653 1763542965
-0.00193117967062 6.68687685637e-05    0.100440959752 1763542965.04
 -0.00220408821663 -7.53070164606e-05    0.0970234898006 1763542965.07
 -0.00253339541672 -0.000143738661704    0.0948363524964 1763542965.1
-0.00286806363405 -0.00012762868536   0.0936024493945 1763542965.14
 -0.00314466239686 -3.22610087323e-05    0.0929774442023 1763542965.17
-0.00329974560659 0.000122912234599   0.0926140638886 1763542965.2
-0.00328310334513 0.000308916876838   0.0922185243177 1763542965.24
-0.00306910700875 0.000493598380466   0.0915895278308 1763542965.27
-0.00266370655388 0.000648243525117    0.090634973794 1763542965.3
-0.00210548751362   0.0007530041504   0.0893664350621 1763542965.33
  -0.001460388683 0.000799936494493   0.0878755010729 1763542965.37
-0.000810988082135  0.000793075263675    0.0862986482803 1763542965.4
-0.00024241312915   0.0007457359101   0.0847782465825 1763542965.43
0.000172341671502 0.000675959105805   0.0834268924882 1763542965.47
0.000384779971449 0.000601451403462   0.0823009151305 1763542965.5
0.000378558306726 0.000535382156887    0.081387076247 1763542965.53
 0.00017107890458 0.000483978734245   0.0806044525537 1763542965.56
-0.000191007749179  0.000446210427931    0.0798212821361 1763542965.6
-0.000641126103956  0.000415228738682    0.0788841067817 1763542965.63
-0.00110471608806 0.000380846207746   0.0776539731707 1763542965.66
-0.00151123955959 0.000332263640221   0.0760423043623 1763542965.7
-0.00180403797851  0.00026042338416    0.074038128184 1763542965.73
-0.00194668636032  0.00015963405013   0.0717192887892 1763542965.76
 -0.0019255350391 2.83711629397e-05    0.069243182424 1763542965.8
 -0.00174899266931 -0.000130647699953    0.0668169673558 1763542965.83
 -0.00144452934216 -0.000310904609821    0.0646521718221 1763542965.86
  -0.0010543289725 -0.000502809027984    0.0629130176016 1763542965.9
-0.000630164721986 -0.000694554989329    0.0616704724292 1763542965.93
-0.000227696762334 -0.000873097081159    0.0608741985052 1763542965.96
9.97415459816e-05 -0.00102536211994   0.0603518579224 1763542966
0.000307599724369 -0.00113981668608   0.0598400205588 1763542966.03
0.000366122316931 -0.00120834060321   0.0590441842901 1763542966.06
0.000264877381949 -0.00122806922385   0.0577186033555 1763542966.1
1.47501669818e-05 -0.00120262254544    0.055751294919 1763542966.13
-0.000353215667997  -0.00114210223244    0.0532370281628 1763542966.16
-0.000792027600087  -0.00106147172564    0.0505219416518 1763542966.2
   -0.001245220763 -0.000977379974184    0.0482075920968 1763542966.23
 -0.00165444799115 -0.000903990594186    0.0471089878653 1763542966.26
 -0.00196704305547 -0.000848748011878    0.0481693641624 1763542966.3
-0.00214267761266 -0.00080912550072   0.0523427106807 1763542966.33
 -0.00215853471581 -0.000771233980591    0.0604618047221 1763542966.36
-0.00201263204832   -0.000710786313   0.0731132532082 1763542966.4
 -0.00172502757788 -0.000596426367025    0.0905407918053 1763542966.43
 -0.00133667939382 -0.000394960207224     0.112593623359 1763542966.47
 -0.00090577911678 -7.76428701103e-05     0.138728650209 1763542966.5
-0.000501506254184  0.000373567946832     0.168065660738 1763542966.53
-0.000195429164779  0.000960941125513     0.199484991931 1763542966.57
-5.12365221378e-05   0.00166809839186     0.231750087667 1763542966.6
-0.000114048530135   0.00246001841284     0.263634336235 1763542966.63
-0.000401045707925   0.00328610431734     0.294033107725 1763542966.66
-0.000895344427978   0.00408593872692     0.322047225393 1763542966.7
-0.00154479215374  0.00479685027315    0.347031417786 1763542966.73
-0.00226665055449  0.00536209525358    0.368608496624 1763542966.76
-0.00295813046094  0.00573838111971    0.386655318838 1763542966.8
-0.00351164684969  0.00590160020591    0.401269060372 1763542966.83
-0.00383264719465  0.00584993313611    0.412721981446 1763542966.86
-0.00385707125106  0.00560386803542    0.421410638123 1763542966.9
-0.00356509408684  0.00520312546215    0.427802895239 1763542966.93
-0.00298800180023  0.00470094417886    0.432384578317 1763542966.96
-0.00220602112932  0.00415661683552    0.435607932071 1763542967
-0.00133664264571  0.00362746827977    0.437845903214 1763542967.03
-0.000515108032226   0.00316153963397      0.43935833048 1763542967.06
0.000129319802704   0.0027920508936    0.440276780877 1763542967.1
0.000496552650182   0.0025343275133    0.440612888267 1763542967.13
0.000533650870057  0.00238541659038    0.440290532839 1763542967.16
0.000244077760901  0.00232620961978    0.439196156136 1763542967.2
-0.000313404213108   0.00232559101145     0.437236002893 1763542967.23
-0.00103586372444   0.0023459483218    0.434386388881 1763542967.26
-0.00179530696486  0.00234929125619    0.430724616112 1763542967.3
-0.00246236931042  0.00230318839482    0.426433612428 1763542967.33
-0.00293030798258  0.00218571663308     0.42178082831 1763542967.36
-0.00313473000579  0.00198867239613    0.417078711683 1763542967.4
-0.00306503258822  0.00171849709369    0.412638001802 1763542967.43
-0.00276497011063  0.00139476103861    0.408725224098 1763542967.46
-0.00232190477092  0.00104656866324    0.405532686477 1763542967.5
 -0.0018467334122 0.000707724973255    0.403164570352 1763542967.53
-0.00144867051779 0.000411750239057    0.401638207572 1763542967.56
-0.00121045039138 0.000187752889438    0.400896672111 1763542967.6
-0.00116965856963 5.78079980801e-05    0.400827879419 1763542967.63
-0.00131066008664   3.598733935e-05    0.401286129742 1763542967.66
-0.00156918287463 0.000128733910617    0.402113545272 1763542967.7
 -0.0018486041557 0.000335996626739    0.403160105786 1763542967.73
-0.00204413207322 0.000652459868142    0.404301310174 1763542967.76
-0.00206912207471  0.00106825970641    0.405451892421 1763542967.8
-0.00187724586699  0.00156870155174    0.406573170764 1763542967.83
-0.0014752680089 0.00213268395088   0.407671430912 1763542967.86
-0.000923475713872   0.00272989785705     0.408785896279 1763542967.9
-0.000323743182881   0.00331750472595     0.409967367301 1763542967.93
0.000201934866747   0.0038377977047    0.411251847875 1763542967.96
0.000537515070419  0.00421895455864    0.412636209921 1763542968
0.00059780952691 0.00438092809843    0.41406388693 1763542968.03
0.000346991410456   0.0042474935503     0.41542689719 1763542968.06
-0.000192857194711   0.00376355536355     0.416586211718 1763542968.1
-0.000944500429001   0.00291446196004     0.417406688951 1763542968.13
-0.00178883041208  0.00174203846461    0.417797405141 1763542968.16
-0.00258626112888  0.00035121256826    0.417745273363 1763542968.2
-0.00320273035445 -0.00109781927067    0.417330747244 1763542968.23
-0.00353616695075 -0.00241382630938    0.416719187468 1763542968.26
-0.00353906221486 -0.00341261124187    0.416128622399 1763542968.3
-0.00323308779841 -0.00396170909519    0.415781635562 1763542968.33
-0.00271262263667 -0.00402119716428    0.415853533721 1763542968.36
-0.00213551897133  -0.0036692083484    0.416429523568 1763542968.4
-0.00170124619347 -0.00310277800355    0.417480677544 1763542968.43
-0.00161849305137 -0.00260942543648    0.418863505223 1763542968.46
-0.00206623486438 -0.00251154209228    0.420342718036 1763542968.5
-0.00315401363406 -0.00309288771879    0.421632477889 1763542968.53
-0.00488844128659 -0.00452264471679    0.422448466647 1763542968.56
-0.00715329163726 -0.00679586095227     0.42256144683 1763542968.6
-0.00970954474223 -0.00970832202576    0.421842572767 1763542968.63
-0.0122191136929 -0.0128782811229   0.420291753822 1763542968.66
-0.0142918311046  -0.015817521627   0.418043061415 1763542968.69
-0.0155502257772 -0.0180417043934   0.415345349628 1763542968.73
-0.0157017763033 -0.0191977749008   0.412521243931 1763542968.76
-0.0146050095839 -0.0191778796701   0.409912330646 1763542968.79
-0.0123151579013 -0.0181878207692   0.407821545311 1763542968.83
-0.00909762992408  -0.0167450110285    0.406464515415 1763542968.86
-0.00540295544472  -0.0155953369741    0.405939612839 1763542968.89
-0.00180402954468  -0.0155573298679    0.406222028573 1763542968.93
0.00109603097081 -0.0173214013701   0.407181328928 1763542968.96
0.00277065946219 -0.0212471869215   0.408616283896 1763542968.99
0.00287221802914 -0.0272092536303   0.410296996205 1763542969.03
0.00130979798168 -0.0345375797063   0.412003699058 1763542969.06
-0.00171522601604  -0.0420830284727    0.413554102025 1763542969.09
-0.00572728156613  -0.0484108111728    0.414815710983 1763542969.13
-0.0100502277665 -0.0520913884863   0.415704374872 1763542969.16
-0.0139269648954 -0.0520267971341   0.416173895267 1763542969.19
-0.0166640138709  -0.047731567338   0.416203103408 1763542969.23
-0.0177713703419 -0.0394904149123    0.41578632242 1763542969.26
  -0.01706515671 -0.0283429041912   0.414930985474 1763542969.29
-0.0147062559301 -0.0158916568388   0.413663018064 1763542969.33
 -0.0111625354326 -0.00397952600777    0.412037221516 1763542969.36
-0.00710219054615  0.00568573007855    0.410147190432 1763542969.39
-0.00324469463861   0.0118735659549    0.408128172337 1763542969.43
-0.000206966723363    0.0140693787149     0.406147554634 1763542969.46
0.00161808406478  0.0125660315807   0.404381541606 1763542969.49
0.00212443768001  0.0083918300236   0.402982029375 1763542969.53
0.00148781163995 0.00308579011029   0.402042519565 1763542969.56
9.98490320563e-05 -0.00163950718447    0.401573842099 1763542969.59
  -0.001538440859 -0.00427813922195    0.401498416939 1763542969.63
-0.00293781682027 -0.00386729899146    0.401666524978 1763542969.66
 -0.00373022948937 -0.000199329651931     0.401891586984 1763542969.69
-0.00374489930949  0.00613943738122     0.40199590621 1763542969.73
-0.00303715741766   0.0139062157706    0.401855187531 1763542969.76
-0.00186561962812   0.0214777115435    0.401430070513 1763542969.79
-0.000623358485082    0.0272017995221     0.400775985878 1763542969.83
0.000261726578852   0.0297538205722    0.400028387918 1763542969.86
0.000434838744565    0.028427621943    0.399367517104 1763542969.89
-0.000294976355036    0.0232993623619     0.398973111855 1763542969.93
-0.0019036903641  0.0152211619537   0.398982515838 1763542969.96
-0.0041538046688 0.00563697641207   0.399464020286 1763542969.99
-0.00664811385992 -0.00374005163945    0.400411595383 1763542970.03
-0.00892188105701  -0.0113078758858    0.401759763476 1763542970.06
 -0.010550416308 -0.0159156888133   0.403411106119 1763542970.09
-0.0112465083197 -0.0170824765212   0.405265668966 1763542970.13
 -0.010925885156 -0.0150532154858   0.407241765866 1763542970.16
-0.00972668173311  -0.0106972615045    0.409280854028 1763542970.19
-0.00797856521815 -0.00528660803622    0.411334413933 1763542970.23
 -0.00612756737458 -0.000208027397739     0.413337101389 1763542970.26
-0.00463300007785  0.00333189871384    0.415176337833 1763542970.29
-0.00386103151713  0.00455069692121    0.416671908218 1763542970.33
-0.00400199190319   0.0032327204945    0.417578116226 1763542970.36
 -0.00503238539727 -0.000259177817058      0.41761501851 1763542970.39
-0.00672884236177 -0.00510040247825    0.416525839422 1763542970.43
-0.00872535647569  -0.0102127144837    0.414148285032 1763542970.46
-0.0105941772131 -0.0145050398801   0.410481679956 1763542970.49
-0.0119286313355 -0.0170885392776   0.405731459357 1763542970.53
-0.0124114140375 -0.0174255864762    0.40031702998 1763542970.56
-0.0118595140298  -0.015395780254   0.394836420375 1763542970.59
-0.0102428810442 -0.0112802329054   0.389989582678 1763542970.63
-0.00767789749931 -0.00567640008591    0.386470569157 1763542970.66
-0.00440062796684 0.000635581965525    0.384846277752 1763542970.69
-0.000729095099869   0.00684500987054     0.385444708401 1763542970.73
0.00297435126027  0.0122460535965   0.388276776255 1763542970.76
0.00633343951669  0.0163274866028   0.393011226985 1763542970.79
0.00898292645798  0.0188060267208   0.399012370291 1763542970.83
0.0105975959345 0.0196144422978  0.405437439239 1763542970.86
0.0109342029135 0.0188679688103  0.411377552617 1763542970.89
0.00988470459058   0.016828940301   0.416016301252 1763542970.92
0.00752521802685  0.0138751542968    0.41877485839 1763542970.96
0.00413820900433  0.0104649602943   0.419413524586 1763542970.99
0.000191282331395  0.00709070706998    0.418067405607 1763542971.03
-0.00372876139957  0.00422084091423    0.415207889982 1763542971.06
-0.00701283137013  0.00224028905694    0.411539015033 1763542971.09
-0.00913666756107  0.00140051689722    0.407853727786 1763542971.12
-0.00975903908634  0.00178499400777    0.404883912817 1763542971.16
-0.00879633912107  0.00329015928641    0.403176649693 1763542971.19
-0.00646103369209  0.00562274191395     0.40301867341 1763542971.22
-0.00325205389792  0.00831998502196    0.404416435022 1763542971.26
0.000110241068667   0.0108019633377    0.407126215807 1763542971.29
0.00280016749056  0.0124585014681   0.410720724123 1763542971.32
0.00403436756215  0.0127592701114   0.414675434544 1763542971.36
0.00322142923947  0.0113634866454   0.418457825474 1763542971.39
8.4591442166e-05 0.00820324549702   0.421604473524 1763542971.42
-0.00526239474415  0.00352205589488    0.423774946855 1763542971.46
 -0.0122969490946 -0.00213907850986    0.424777949868 1763542971.49
 -0.0201333725182 -0.00800830571565    0.424572768751 1763542971.52
-0.0276369119323 -0.0131986578277   0.423254517603 1763542971.56
-0.0336023226752 -0.0168633298529   0.421032227675 1763542971.59
-0.0369748122997 -0.0183689377744   0.418204640106 1763542971.62
-0.0370692452265 -0.0174503374949   0.415132984006 1763542971.66
-0.0337312911413 -0.0143026562398   0.412207104486 1763542971.69
  -0.027392351747 -0.00957398464782    0.409802922865 1763542971.72
-0.0189979038436 -0.0042464226912    0.40823406974 1763542971.76
-0.00982498680371 0.000574432199847     0.40770554389 1763542971.79
-0.00123455749018   0.0039131067111    0.408279680403 1763542971.82
0.00558139584207 0.00515797121974   0.409863432883 1763542971.86
0.00980192599014 0.00421520994594   0.412221504753 1763542971.89
 0.0110902011323 0.00154218731306   0.415013801133 1763542971.92
  0.0096041761607 -0.00195168982072    0.417850021248 1763542971.96
 0.00591564304724 -0.00511715132137    0.420350667893 1763542971.99
0.000866154180989 -0.00684432074203     0.42220308991 1763542972.02
-0.00460351301643 -0.00634700261901    0.423203095709 1763542972.06
-0.00961498397288 -0.00338726038045     0.42327617689 1763542972.09
-0.0134779655034 0.00161356620334   0.422476339738 1763542972.12
-0.0157648002291 0.00760902582798   0.420964188888 1763542972.16
-0.0163308512843  0.0131090402197   0.418968948707 1763542972.19
-0.0152876816106  0.0164794371549     0.4167414617 1763542972.22
-0.0129426150431  0.0163028236252    0.41450664679 1763542972.26
-0.00972116612402   0.0117262411886    0.412424011097 1763542972.29
-0.00608827448846  0.00271719884552    0.410563265885 1763542972.32
-0.00248099226005 -0.00983779055994    0.408899075171 1763542972.36
0.000739662869839  -0.0242295514298    0.407325237778 1763542972.39
0.00331527873582 -0.0382142108967   0.405685206247 1763542972.42
0.00509711084364 -0.0494441591107   0.403813545656 1763542972.46
0.00603851838552 -0.0559535280403   0.401581871524 1763542972.49
0.00617851579469 -0.0565867520653   0.398942510552 1763542972.52
0.00562139747799  -0.051262319678   0.395962939505 1763542972.56
0.00451581074935 -0.0409981272409   0.392843709604 1763542972.59
0.00303529309223 -0.0276849983659   0.389912590443 1763542972.62
0.00136174427026 -0.0136648806443   0.387589364313 1763542972.66
-0.000326713547293   -0.0012258073109     0.386320472678 1763542972.69
-0.00186247188696  0.00785546362366    0.386490866866 1763542972.72
-0.00309039754175   0.0126178263971    0.388330036979 1763542972.76
-0.00386826481466   0.0130183789947    0.391836173146 1763542972.79
-0.0040710257976 0.00984390197714   0.396742222905 1763542972.82
-0.00360402577703  0.00448035420409     0.40253827086 1763542972.86
-0.00242671766306 -0.00139969914785    0.408548834745 1763542972.89
-0.000582620616661  -0.00617656756665     0.414047732606 1763542972.92
 0.00177414002048 -0.00859915546821    0.418383539829 1763542972.96
 0.00436765309822 -0.00802595400177    0.421088018283 1763542972.99
 0.00681432981545 -0.00454436987852    0.421946480967 1763542973.02
0.00866678817934 0.00105922139523   0.421019021801 1763542973.06
0.00948511693453 0.00747237143331   0.418611902894 1763542973.09
0.00892650158075  0.0131314896012   0.415207809565 1763542973.12
 0.006838606115 0.0165384531791  0.411371313634 1763542973.16
0.00333783979808  0.0165588707404   0.407650283199 1763542973.19
-0.0011484767929  0.0126536024355   0.404493479941 1763542973.22
-0.00589525569443   0.0050068433456    0.402198787574 1763542973.26
-0.00995981081092 -0.00547649690922    0.400897223887 1763542973.29
-0.0123272316178 -0.0173165275088   0.400568479919 1763542973.32
-0.0121019011893 -0.0287318406765   0.401077386598 1763542973.36
-0.00870987154451  -0.0379885371657    0.402218881945 1763542973.39
-0.00206695908969  -0.0437430965676    0.403761107838 1763542973.42
0.00733209985754 -0.0452927170568   0.405480312686 1763542973.46
 0.0184360135265 -0.0426728699627   0.407185293818 1763542973.49
  0.029781282551 -0.0365884204672   0.408731855718 1763542973.52
 0.0397408189232 -0.0282121393705   0.410028748936 1763542973.56
0.0468308448483 -0.018915263868  0.411036177633 1763542973.59
 0.0500091178577 -0.0100012541764   0.411757188329 1763542973.62
 0.0488915182385 -0.0024990166565   0.412222200528 1763542973.66
  0.043828429532 0.00295463438553   0.412468302318 1763542973.69
 0.0358170437668 0.00614050534491   0.412517441589 1763542973.72
 0.0262720724794 0.00720727047379   0.412359994661 1763542973.76
 0.0167187103221 0.00657253207536   0.411950608554 1763542973.79
0.00849047621417 0.00480215018419   0.411220434376 1763542973.82
0.00250301495792 0.00249250863021   0.410104196248 1763542973.86
-0.000858579426513  0.000175672302911      0.40857415562 1763542973.89
-0.00173770411137 -0.00173962949037    0.406669055033 1763542973.92
-0.00071110111764 -0.00298840710144    0.404506804563 1763542973.96
0.00137113713239 -0.0034398958232   0.402274954754 1763542973.99
 0.00358253791361 -0.00307481043569    0.400200569877 1763542974.02
0.00512364012308 -0.0019660384351   0.398507874008 1763542974.06
  0.00549513972592 -0.000271264983926     0.397375741337 1763542974.09
0.00460336091534  0.0017653428992   0.396906952771 1763542974.12
 0.0027731108909 0.00381333323336   0.397117469583 1763542974.16
0.000666518953917  0.00547039618339    0.397947801857 1763542974.19
-0.000870226915367   0.00629937783387     0.399291509732 1763542974.22
-0.000997725070447    0.0058901176755      0.40103015872 1763542974.26
0.000923684672929   0.0039417915549    0.403061850343 1763542974.29
0.00517102783506 0.00035383824744   0.405312940766 1763542974.32
  0.0115567690091 -0.00469524062448    0.407729068334 1763542974.36
 0.0194169549993 -0.0107085995925   0.410249636042 1763542974.39
0.0277071188039 -0.016897248382  0.412776180346 1763542974.42
 0.0351974765496 -0.0222840341541   0.415147267406 1763542974.45
 0.0407250669274 -0.0258742297733   0.417130480563 1763542974.49
 0.0434356120202 -0.0268573875247   0.418437344352 1763542974.52
 0.0429469302751 -0.0247911714692   0.418761691176 1763542974.55
  0.039391102704 -0.0197203287836   0.417837082259 1763542974.59
 0.0333328905351 -0.0122011069112   0.415504465413 1763542974.62
  0.0255997799073 -0.00322567652034    0.411777214052 1763542974.65
 0.0170808931709 0.00593621841099   0.406887753175 1763542974.69
0.00855314549604  0.0139459354228   0.401299613724 1763542974.72
0.000577029244875   0.0196164718211    0.395672424084 1763542974.75
-0.0065206074896   0.022108389286   0.390775529401 1763542974.79
-0.0125849725232  0.0210721584378    0.38735754595 1763542974.82
-0.0175210753116  0.0167184085431   0.385991647556 1763542974.85
-0.0211702198473 0.00980864761455   0.386926349312 1763542974.89
-0.0232164172331 0.00156888772855   0.389975683133 1763542974.92
 -0.0231566907902 -0.00646372810828    0.394478753147 1763542974.95
-0.0203546035023 -0.0126456039392   0.399346603289 1763542974.99
-0.0141766050836 -0.0154623191647    0.40319648488 1763542975.02
-0.0041889822471 -0.0137697453811   0.404554285165 1763542975.05
 0.00962704575115 -0.00700913235416    0.402089999311 1763542975.09
 0.0266985991331 0.00464087308031   0.394842690351 1763542975.12
0.0457817605266    0.0202134627  0.382392331098 1763542975.15
0.0650249304795 0.0380342030836  0.364945844303 1763542975.19
0.0821899480254 0.0559422296806  0.343321146986 1763542975.22
0.0950043647266 0.0716296740888  0.318832433938 1763542975.25
 0.101576740638 0.0830416532125  0.293098270252 1763542975.29
 0.100779609714 0.0887527976121  0.267807583226 1763542975.32
0.0925035007938 0.0882312642213   0.24448468935 1763542975.35
0.0777137981309 0.0819235028409  0.224292155754 1763542975.39
0.0582928969163 0.0711378054413  0.207900701056 1763542975.42
0.0367063337966  0.057757126199  0.195441300987 1763542975.45
0.0155742456278 0.0438541088735  0.186539772412 1763542975.49
-0.00275429005364   0.0313009463176    0.180421507443 1763542975.52
-0.0165385366962  0.0214600556676   0.176065408027 1763542975.55
-0.0248415604853  0.0150136642786   0.172381490501 1763542975.59
-0.0275694369482   0.011951576726   0.168385283617 1763542975.62
-0.0253736092247  0.0116980811264   0.163343489801 1763542975.65
-0.0194569758326  0.0133304772298   0.156869648612 1763542975.69
-0.0113310823288   0.015828404185   0.148956171266 1763542975.72
-0.00256743501273   0.0182958271902    0.139939715316 1763542975.75
0.0054238483017 0.0201130886503  0.130408712578 1763542975.79
0.0115650272468 0.0209991493651  0.121072329584 1763542975.82
0.0152167854207 0.0209875184579  0.112616732585 1763542975.85
0.0162122306826 0.0203378322634  0.105575779999 1763542975.89
0.0148199255883 0.0194152691038  0.100239097807 1763542975.92
  0.01164625744 0.0185712156311  0.096612091763 1763542975.95
0.00749623369379  0.0180521865925  0.0944318250619 1763542975.99
0.00321779435336  0.0179527155349   0.093232111372 1763542976.02
-0.000443772205446     0.018215172797    0.0924426324445 1763542976.05
-0.00295816125356   0.0186683801553    0.091501705187 1763542976.09
-0.00407344679557   0.0190896115471   0.0899609928116 1763542976.12
-0.00382457246194   0.0192718451303   0.0875628113115 1763542976.15
-0.00249093316176   0.0190795859906   0.0842761611042 1763542976.19
-0.000515514831055    0.0184812560137     0.080285384334 1763542976.22
0.00159620596692   0.017552834018  0.0759343172211 1763542976.25
0.00337718536669  0.0164546981257  0.0716375906291 1763542976.29
0.00448077645667  0.0153898564754   0.067777699342 1763542976.32
0.00473019703189  0.0145553831466  0.0646099800322 1763542976.35
0.00412981320524  0.0140989763112  0.0621965574274 1763542976.39
0.00284119772674  0.0140894534513  0.0603844758149 1763542976.42
0.00113409394718  0.0145052532527  0.0588337156497 1763542976.45
-0.000673838942157    0.0152405875858    0.0570897312486 1763542976.49
-0.00227506155676   0.0161260580808   0.0546850754184 1763542976.52
-0.00341831999566   0.0169593557395   0.0512478372563 1763542976.55
-0.00393846014326   0.0175412749995   0.0465924718652 1763542976.59
-0.00376990665997   0.0177119104475     0.04077166835 1763542976.62
-0.00294642941638   0.0173814261621   0.0340757715315 1763542976.65
-0.00159042528412   0.0165496950651   0.0269775797868 1763542976.69
0.000105759862497   0.0153100948244    0.020032792588 1763542976.72
0.00190494840491  0.0138351815695   0.013757084889 1763542976.75
0.00355557549337  0.0123456073217 0.00850698557785 1763542976.79
0.00482568883505   0.011067709147 0.00439166524362 1763542976.82
0.00553715332712  0.0101885374207 0.00123619935023 1763542976.85
 0.00559496427988  0.00981856858864 -0.00139466056747 1763542976.89
 0.00500568253337  0.00997122155041 -0.00411692925382 1763542976.92
 0.00387978067343   0.0105644870554 -0.00760933514922 1763542976.95
0.00241536426324  0.0114442240227 -0.0124823025423 1763542976.99
0.000864813451947   0.0124225400882  -0.0191614542751 1763542977.02
-0.000509761901079    0.0133202086054   -0.0278086347366 1763542977.05
-0.0014831871077  0.0140010763824 -0.0382941082763 1763542977.09
-0.00190610569124   0.0143895218178  -0.0502220862968 1763542977.12
-0.00172802557043   0.0144681840233  -0.0630009831781 1763542977.15
-0.00100037397141   0.0142600414131  -0.0759420892486 1763542977.19
0.000139885817273   0.0138039049215  -0.0883668962912 1763542977.22
0.00150130447552  0.0131338079144 -0.0997041635631 1763542977.25
0.00287612932234  0.0122703260073  -0.109562039462 1763542977.29
0.00407728922856  0.0112265969541  -0.117766677624 1763542977.32
0.00496703691828  0.0100256785052  -0.124365285308 1763542977.35
0.00547278867206 0.00872108346206  -0.129597231211 1763542977.39
0.00558902877427 0.00741060275319  -0.133841013873 1763542977.42
0.00536716508988 0.00623549364271  -0.137547280788 1763542977.45
0.00489722281008 0.00536207165478  -0.141168773961 1763542977.49
0.00428598901945 0.00494898546818  -0.145097387186 1763542977.52
0.00363586102955  0.0051088279943  -0.149616796107 1763542977.55
0.00302765311305 0.00587537028756  -0.154876495546 1763542977.59
0.00250943219221 0.00718664452671  -0.160889559144 1763542977.62
0.00209237497431 0.00888965119457  -0.167552291522 1763542977.65
0.00175376144117  0.0107661003219   -0.17467994511 1763542977.69
0.00144645926867  0.0125724817708  -0.182049866201 1763542977.72
0.00111341723666  0.0140839693472   -0.18944259173 1763542977.75
0.000704657178045    0.015131392668   -0.196672706278 1763542977.79
0.000193228254471   0.0156235779241   -0.203604315938 1763542977.82
-0.000413900816561    0.0155522905577    -0.210150083895 1763542977.85
-0.00107340907769   0.0149818086976   -0.216256951509 1763542977.88
-0.00171311588562   0.0140282660008   -0.221884901579 1763542977.91
-0.00224805375542   0.0128347814111   -0.226986539285 1763542977.95
-0.00260100225094   0.0115474864828   -0.231494449613 1763542977.98
-0.00272165736281   0.0102958880319   -0.235320460755 1763542978.01
-0.00259869467433  0.00917955255512   -0.238366989089 1763542978.05
-0.00226095847946  0.00826232158382   -0.240546886789 1763542978.08
-0.00176727184683    0.007574885199   -0.241805926635 1763542978.11
-0.0011878153288 0.00712574932314  -0.242141861416 1763542978.15
-0.000582517678604   0.00691874240779    -0.241615579413 1763542978.18
1.72403523375e-05  0.00697237762588   -0.240352320697 1763542978.21
0.000618077874375  0.00733381464058   -0.238533335981 1763542978.25
0.00126162755099 0.00807951172943  -0.236380303687 1763542978.28
0.00200814768922 0.00929709262446  -0.234136085687 1763542978.31
0.0029088234524 0.0110484238784 -0.232045703518 1763542978.35
0.00397213885633  0.0133210499846  -0.230340364687 1763542978.38
0.00513281470416  0.0159817207662  -0.229225015314 1763542978.41
0.00623388627837  0.0187492968877  -0.228867195531 1763542978.45
0.00703235181484   0.021202950956  -0.229383510481 1763542978.48
0.00723538913723  0.0228347345072  -0.230821049062 1763542978.51
0.00656702731812  0.0231442889421  -0.233134575759 1763542978.55
0.00485515622662  0.0217601486323  -0.236164884678 1763542978.58
0.00211808506729  0.0185600094103   -0.23962724849 1763542978.61
-0.00137798496099   0.0137550445986   -0.243119630279 1763542978.65
-0.00512035474726  0.00790385902077   -0.246157487135 1763542978.68
-0.00843157833384  0.00183163953001   -0.248236067942 1763542978.71
-0.0106352421507 -0.0035509673112  -0.248913603507 1763542978.75
 -0.0112852444199 -0.00750950802646   -0.247901720754 1763542978.78
 -0.0104130551347 -0.00978119514534   -0.245144735609 1763542978.81
-0.00872797127337  -0.0108341003062   -0.240868609678 1763542978.85
-0.00769707872736  -0.0120058886533   -0.235583905049 1763542978.88
-0.00943905914005  -0.0154393611379   -0.230034746746 1763542978.91
-0.0163925695302 -0.0237554693965  -0.225096393399 1763542978.95
-0.0307668065969 -0.0394544717798  -0.221635478152 1763542978.98
-0.0538451598857 -0.0641112820971  -0.220356729269 1763542979.01
-0.0852808287547 -0.0975199408923  -0.221665455903 1763542979.05
-0.122575945378 -0.137019553802 -0.225574510379 1763542979.08
  -0.1609488527 -0.177265687628 -0.231677456461 1763542979.11
-0.193747632405  -0.21066533925 -0.239197502744 1763542979.15
-0.213456305438 -0.228557788123 -0.247106810605 1763542979.18
-0.213180468753 -0.223017926119 -0.254296052597 1763542979.21
-0.188331797501 -0.188936368174 -0.259762662201 1763542979.25
-0.138110235582 -0.125864860015 -0.262780877907 1763542979.28
-0.0663599659766 -0.0390752287157  -0.263019430454 1763542979.31
0.0185224756367 0.0605962553813 -0.260583795237 1763542979.35
 0.104735219413  0.158272374163 -0.255976936091 1763542979.38
 0.179108987734  0.237721388413 -0.249990633127 1763542979.41
 0.229623642116  0.284664702305 -0.243553592713 1763542979.45
 0.247843568917  0.289953784315 -0.237569234568 1763542979.48
 0.230710730564  0.251847623366 -0.232774787825 1763542979.51
0.181278265547 0.176806097409 -0.22964565492 1763542979.55
 0.108213738662 0.0785492372975 -0.228357593967 1763542979.58
 0.0241811918056 -0.0244700221178  -0.228807249851 1763542979.61
-0.0565456115301  -0.112668769163  -0.230681567718 1763542979.65
-0.120733743351 -0.169255779388 -0.233559796806 1763542979.68
-0.158565188971 -0.183637899653 -0.237027834325 1763542979.71
-0.165274729706 -0.153583036533 -0.240783020359 1763542979.75
  -0.14176372228 -0.0856765404393  -0.244708501979 1763542979.78
-0.0941245003345 0.00602521061958  -0.248901030474 1763542979.81
-0.0322346551918   0.102851132968  -0.253645120347 1763542979.85
0.0322423074473  0.185265384207 -0.259338587422 1763542979.88
 0.088021949352  0.236712514997 -0.266386268413 1763542979.91
0.126111485949 0.246761285235 -0.27508632958 1763542979.95
 0.141149766172  0.212932292535 -0.285534689521 1763542979.98
 0.132002851049  0.140904245519 -0.297568023873 1763542980.01
 0.101598083411 0.0431481328924 -0.310756827759 1763542980.05
 0.0561071915864 -0.0636492064257  -0.324449756673 1763542980.08
0.00367545639816  -0.161804069744  -0.337861030624 1763542980.11
-0.0470603890096  -0.235855079598  -0.350185327684 1763542980.15
-0.0884135598857  -0.275190979624  -0.360719941616 1763542980.18
  -0.1148202748 -0.275644155762 -0.368972390024 1763542980.21
-0.123572538646 -0.239819567615 -0.374733514558 1763542980.25
-0.115020022113  -0.17616965968 -0.378101758219 1763542980.28
-0.0922457059077 -0.0970576945599  -0.379453491375 1763542980.31
-0.0603126215948 -0.0162355133637  -0.379365468428 1763542980.35
-0.0252499677501  0.0537396816624  -0.378505890632 1763542980.38
0.00702037360478   0.103635848365  -0.377516973682 1763542980.41
0.0316280810353   0.12883236774 -0.376912447403 1763542980.45
0.0454296384859   0.12957661812 -0.377008326006 1763542980.48
0.0473408663314   0.11026382503 -0.377896731224 1763542980.51
0.0383152451149 0.0780025020793 -0.379463227519 1763542980.55
0.0210045699067 0.0408568023304 -0.381440051125 1763542980.58
-0.000825581070333   0.00617980901513    -0.383481777098 1763542980.61
-0.0230232202546 -0.0206266393421  -0.385246779467 1763542980.65
-0.0417946558116 -0.0367376200996  -0.386467619252 1763542980.68
-0.0543339679817 -0.0418981333425  -0.386996539789 1763542980.71
-0.0592242492594 -0.0379103645925   -0.38681843955 1763542980.75
-0.0565452486197 -0.0278294152319  -0.386031970824 1763542980.78
-0.0476868426733 -0.0150998708388   -0.38480762413 1763542980.81
 -0.0349312718092 -0.00282464869111   -0.383337159501 1763542980.85
-0.0209119700881 0.00671843179362  -0.381789600268 1763542980.88
-0.00807296297935   0.0122803955964   -0.380284999069 1763542980.91
0.00176084731728  0.0136017600492  -0.378889982831 1763542980.95
0.00762907629639  0.0112075565586  -0.377631474024 1763542980.98
0.00947235389381 0.00612506448657  -0.376519665156 1763542981.01
  0.00798342831854 -0.000400537414493    -0.375569780536 1763542981.05
0.00433256181207 -0.0071436482323  -0.374814237823 1763542981.08
-0.000155690043376   -0.0130676929883    -0.374301158446 1763542981.11
-0.00429976541021  -0.0174261315106   -0.374080092435 1763542981.15
-0.00727632196707   -0.019804880374   -0.374179991274 1763542981.18
-0.00872433966537  -0.0201175998637   -0.374587027459 1763542981.21
-0.0087369323896 -0.0185633036424  -0.375230291758 1763542981.24
-0.00776210071337  -0.0155550895403   -0.375981508847 1763542981.28
-0.00644691320448  -0.0116312906276    -0.37667108306 1763542981.31
-0.00546309247575 -0.00736410717188   -0.377118088737 1763542981.34
-0.00534769388994 -0.00328218597643   -0.377167724053 1763542981.38
-0.00638390316272 0.000179809231986   -0.376727528776 1763542981.41
-0.00853720974943  0.00269957936452   -0.375793874926 1763542981.44
-0.0114533204513 0.00405836526787  -0.374462551859 1763542981.48
-0.0145166235807 0.00411804006987  -0.372920758808 1763542981.51
 -0.016961285838 0.00280106342327  -0.371421438449 1763542981.54
 -0.0180205098995 8.83987838446e-05   -0.370243886668 1763542981.58
 -0.0170929665898 -0.00395645612494    -0.36964668436 1763542981.61
 -0.0138996517496 -0.00913941076575   -0.369820289606 1763542981.64
-0.0086009437911 -0.0150768313059  -0.370847224144 1763542981.68
-0.0018444191758 -0.0211479981572  -0.372677589543 1763542981.71
0.00527929775546 -0.0264859046041  -0.375126258394 1763542981.74
 0.0113820775826 -0.0300312203894  -0.377895060524 1763542981.78
 0.0150157464036 -0.0306641232666  -0.380618667289 1763542981.81
 0.0149702755229 -0.0274108880229  -0.382927555572 1763542981.84
 0.0105813159127 -0.0196991135342  -0.384516886473 1763542981.88
 0.00198209460742 -0.00761207324612     -0.3852077336 1763542981.91
-0.00976759063838  0.00792453922847    -0.38498756546 1763542981.94
-0.0227302947273  0.0250941428233  -0.384020232859 1763542981.98
-0.0343453121384  0.0413347455576   -0.38262139676 1763542982.01
-0.0418759448726  0.0536982325921  -0.381202369574 1763542982.04
-0.0429904206061  0.0593910336587  -0.380192344512 1763542982.08
-0.0363733668045  0.0564062398215  -0.379954323674 1763542982.11
-0.0222348117965  0.0441111813374  -0.380712201561 1763542982.14
-0.00257835209728   0.0236371973066   -0.382504451637 1763542982.18
  0.0188835081638 -0.00205884745994   -0.385173776962 1763542982.21
 0.0372204620012 -0.0285297951658  -0.388393409618 1763542982.24
 0.0471534620643 -0.0505527154385  -0.391722238978 1763542982.28
 0.0441832128162 -0.0631186953799  -0.394675612822 1763542982.31
 0.0257807927244 -0.0625272457117  -0.396798117722 1763542982.34
-0.00760671111056   -0.047377232487   -0.397728155798 1763542982.38
-0.0519903736364 -0.0192377803136  -0.397249035677 1763542982.41
-0.099925472687 0.0171966994384 -0.395324674577 1763542982.44
-0.141364937995 0.0546051782322 -0.392118392017 1763542982.48
-0.165250460573 0.0842232309804 -0.387991363393 1763542982.51
-0.161636868621 0.0975859855188 -0.383475469789 1763542982.54
-0.123978487986  0.088528070089 -0.379216223594 1763542982.58
-0.051096100661 0.0549909160525 -0.375886586262 1763542982.61
   0.051665227649 0.000135107645743   -0.374080846878 1763542982.64
  0.172461914968 -0.0676562105343  -0.374206031242 1763542982.68
 0.294310032157 -0.136061819797 -0.376392635973 1763542982.71
 0.397635859344 -0.191239440178 -0.380444564744 1763542982.74
 0.463595666206 -0.220879693111 -0.385840687093 1763542982.78
 0.477536118332 -0.217166457887  -0.39179035477 1763542982.81
 0.431894793105 -0.178871384854 -0.397335614814 1763542982.84
 0.327925659405 -0.111991322527 -0.401485692157 1763542982.88
  0.175861707449 -0.0286981297505  -0.403365250144 1763542982.91
-0.00655418270169   0.0551908451112   -0.402356710652 1763542982.94
-0.196901243465  0.123623120017 -0.398217499442 1763542982.98
-0.371727775417  0.163773824325  -0.39115426508 1763542983.01
-0.510308724945  0.168725963139 -0.381837738568 1763542983.04
-0.597808783746  0.138748152477 -0.371345646603 1763542983.07
-0.627294017366 0.0809211664093 -0.361029601739 1763542983.11
 -0.600289383584 0.00728627436669  -0.352316405085 1763542983.14
 -0.525876864861 -0.0679565995608  -0.346472528933 1763542983.17
-0.418604342474 -0.131478461187 -0.344376929787 1763542983.2
-0.295676692081 -0.173366230913 -0.346354328073 1763542983.24
-0.173995929952 -0.188665944829 -0.352112869856 1763542983.27
-0.0675966136726  -0.177712995906   -0.36080610485 1763542983.3
0.0141022998126 -0.145355034856 -0.371206108535 1763542983.34
 0.0670061571349 -0.0994118149638  -0.381944211403 1763542983.37
 0.0920170789729 -0.0488266631424  -0.391759572444 1763542983.4
  0.0938779264664 -0.00194299834322   -0.399698888517 1763542983.44
   0.0795361325 0.0347801487251 -0.405229887233 1763542983.47
0.0564276916137 0.0574656361953 -0.408258400079 1763542983.5
0.0310422486361 0.0649416597771 -0.409064131558 1763542983.54
0.00801796121834  0.0584215056475  -0.408186574397 1763542983.57
-0.0101375931575  0.0409249896935   -0.40629688193 1763542983.6
-0.0227587507262  0.0166204911977   -0.40408504266 1763542983.64
 -0.0303461808796 -0.00978484151651   -0.402178536911 1763542983.67
-0.0337523553865 -0.0335497980787  -0.401094195262 1763542983.7
