-0.00553197200580024  -0.0194601981841335    0.694317901057054 0.694612589690046 1763543187.15912
 0.113661268836967 0.0214259436271553  0.303327876295203 0.32463172308279 1763543187.19428
-0.131125126435446 0.0213290526171402  0.299213253860871 0.327379441251687 1763543187.23219
-0.157895502692737 -0.155951713678192   0.69434104972598 0.728945416409441 1763543187.25891
0.0840692983449535 0.0436568843344196  0.300659994072225 0.315230078687793 1763543187.29362
 -0.121921950152811 0.00459324285275707   0.328155282154305 0.350102769218898 1763543187.33208
-0.0249286360209258   -0.23127975226303   0.672939689115804 0.712010945061933 1763543187.35888
 0.124008799733565 -0.110380418037296  0.366284862506171 0.40215248301933 1763543187.39302
-0.043702644984765 0.0049062676165044  0.280139517113773 0.283570346985236 1763543187.43217
-0.0217153460900942  0.0109528924942534   0.734834960307858 0.735237336511452 1763543187.45892
0.0809911460404525 0.0739848665214815  0.318887253045996 0.337227529075502 1763543187.49261
0.0140524593553535 0.0460872964508357  0.307658681344083 0.311408694025169 1763543187.53248
-0.0191987562722807    0.13891140162156   0.657186914660426 0.671981852838125 1763543187.55909
 0.040438253141944 0.0588392408096738  0.348427505972922 0.355667028967743 1763543187.59351
-0.00951836557913688   0.0123638567061957     0.34896818722194 0.349316847473632 1763543187.63299
-0.0461274289027818 -0.0336657881834253   0.661853858957229 0.664312919946442 1763543187.65964
-0.0463528468603372  0.0119701374196284   0.319282335512536 0.322851483459876 1763543187.69327
-0.0939723609184422 -0.0145184977790834   0.397175176246046 0.408398961825842 1763543187.73326
-0.122010854995232  -0.13974576380561  0.634885088395321 0.661433747782055 1763543187.75978
  0.0904617084898264 3.50104807784614e-05     0.30429320579949 0.317454999998996 1763543187.7937
-0.0365604273290783 -0.0533454692620581   0.325070307998931 0.331440958663521 1763543187.83375
-0.0432963282918064  -0.123468507559567   0.660660799030611 0.673492194296492 1763543187.86018
 0.164973843847959 0.0216747931983551  0.362570344442735 0.398927838692019 1763543187.89373
-0.00110011469090241   0.0148026173308276    0.280772443145909 0.281164529345895 1763543187.9342
0.051404891942864 0.175051616629973 0.658402693674975 0.683212732930884 1763543187.96054
-0.0286247232161604  0.0520481982002992   0.348370729569422 0.353398578004822 1763543187.99325
-0.0880709597551298  0.0240164648156369   0.370714320175847 0.381788412236242 1763543188.03452
-0.203129410007495 -0.140832054551173  0.730947994465596 0.771608835753177 1763543188.06078
0.0796796515228246 -0.063120783661555   0.38098687319619 0.394314693797553 1763543188.09241
0.0236644823757559 0.0298600602503686  0.244056293666196 0.247012358804875 1763543188.13452
0.102654135941665  0.11490648179813 0.653989257036991 0.671895318859232 1763543188.16084
  0.013346866427863 -0.0146662021003399   0.352373141454651 0.352930683202963 1763543188.1923
-0.0651676003900318 -0.0361128438749982   0.335150180249271 0.343331613683409 1763543188.23417
-0.0633163697912849  -0.083116077330089   0.748395823195615 0.755654387382836 1763543188.26076
 -0.0140033531401443 -0.00228067690080079    0.375377302371872 0.375645330760649 1763543188.2921
0.0158465245759938 0.0179273037139482  0.240385984203025 0.241573843701769 1763543188.33381
-0.0188126094588909   0.017433333619061    0.63405059266205 0.634569136856516 1763543188.36055
 0.050769095395064 0.0403692304548492  0.436901746533755 0.441690289613656 1763543188.39173
 0.0383245405568753 -0.0583993241412256   0.268079929383301 0.277030864719444 1763543188.43307
 0.125843473084343 0.0280485321171775  0.681533835987512 0.693622137382964 1763543188.46025
0.0371825240075803  0.065781577502898  0.446154582780544 0.452508196352757 1763543188.49038
-0.0550439604329426 -0.0303816808984356   0.270624484042348 0.277831775500112 1763543188.5322
-0.0103735354079645  -0.018215761007591   0.641271214244763 0.641613742375348 1763543188.5596
-0.0809634026893278  0.0723693521586285   0.407652698922165 0.421868603531265 1763543188.58952
 0.0115438748109935 -0.0791820777085237   0.259287826519772 0.271354453542295 1763543188.63173
-0.0698658299769703  -0.025385704653964   0.680556907575662 0.68460453741419 1763543188.65909
-0.0204978268870478 -0.0494682960016941   0.468358538320365 0.471409581610293 1763543188.68875
 0.0216258617316115 -0.0474620885047234    0.21786557340322 0.224021730676242 1763543188.73101
-0.0250778056104199 0.00571162982932155   0.681792565542046 0.682277525262225 1763543188.75851
0.0219326452469581 0.0273963088002233  0.467632256644791 0.468947253023307 1763543188.78851
-0.00758521731776023  0.00695582295190421    0.266245130677228 0.266443968976651 1763543188.82995
 0.0084341771959329 -0.0319069604004061   0.667482188278804 0.66829758426649 1763543188.85806
-0.0330849021237676  0.0608630343068746   0.407823759883496 0.413665491453047 1763543188.88802
-0.0297807915017941 -0.0979169378473989   0.250081309964285 0.27021340428139 1763543188.92892
  -0.11543796265669 -0.0132886081549998   0.678592630355648 0.688469656776551 1763543188.95767
-0.00699619664216852    0.116994351986212    0.446517761409993 0.461643516599899 1763543188.98776
0.0706318589006578 -0.147791277423992  0.213044067432624 0.268735736072846 1763543189.02813
-0.0447473179598604 -0.0879128664801336   0.616903082778657 0.624740272512638 1763543189.05731
-0.024173726825687  0.112088524909377  0.459784145410218 0.473866718451092 1763543189.08795
 0.0365083495228629 -0.0302378747468048    0.22750630842433 0.23239257524059 1763543189.12722
-0.0428312469594238  0.0118367589465091   0.628304199846205 0.6298736318682 1763543189.15705
-0.0550504655584044   0.117945312774285   0.407284311296622 0.427577081696371 1763543189.18803
 0.0644920262347073 -0.0922313071085865   0.199386464748256 0.228955886108272 1763543189.22665
-0.0313447762358362  0.0754562570195047   0.580065258476425 0.585791640271513 1763543189.25692
0.0136079885629782 0.0518014495896681  0.392254452335523 0.395894080417177 1763543189.28838
 0.0568463602493776 -0.0834627410754137   0.181088163868993 0.207341411480839 1763543189.32606
-0.00573251486971869  -0.0437718784195004    0.467649697174677 0.469728728453637 1763543189.35699
   0.0240533996642173 -5.81173953850928e-05     0.323447316325914 0.324340462864987 1763543189.38871
0.00332677874087612 -0.0625660283888906   0.121865361177231 0.137028251174738 1763543189.42634
 -0.139859859989734 -0.0628126998797145   0.387243132337469 0.416489446739124 1763543189.45728
-0.00673286850423349     0.21435102286415    0.202811235105189 0.29516790070415 1763543189.48833
 0.0443224979713013 -0.0803725888847438  0.0922171883146347 0.130108595761805 1763543189.52619
-0.0576809029951442  0.0682149976078063   0.286494116564484 0.30009873591042 1763543189.55766
-0.0263245015348748  0.0261983847243626   0.172351476191501 0.176307589424321 1763543189.58893
0.00772994280394477  -0.064905279389854  0.0452693309425835 0.0795094939766089 1763543189.62632
 0.015514511333436 0.0295114907527451  0.141604761897559 0.1454769285503 1763543189.65822
 0.0145706113158805 -0.0363867786366479   0.093330704595305 0.101227075399455 1763543189.68968
0.00167060990709639 -0.0430151190449564 -0.0295552339317416 0.052216886700314 1763543189.72681
-0.0342254409676314  0.0816522349651263  0.0981879003819178 0.132209425025746 1763543189.75869
0.0318811398695832  0.057831706648397 0.0291196503582444 0.0721724837471773 1763543189.78973
 0.0538520257414312 -0.0588784623307087 -0.0685274779008083 0.105179509555475 1763543189.82717
 -0.026216268281219 -0.0189568950072115  0.0393603056967359 0.0509498798374225 1763543189.85901
0.00163383991894288  0.0103082380712656  0.0509619274377514 0.0520196814021891 1763543189.89021
 0.0165862307061977 -0.0578497261847811 -0.0421897118252802 0.0734960247400739 1763543189.92727
-0.0730266914522052  0.0398488211657533  0.0186703305762076 0.0852608201730469 1763543189.95921
  0.028855028842157 0.00942429507925802  0.0217161772822092 0.0373232150675016 1763543189.98988
 0.0148412267633679 -0.0207256857503916 -0.0403132699696956 0.0476967063570983 1763543190.02723
 -0.0662350427973463 -0.00610782848318283  0.00677985775984918 0.0668606979801293 1763543190.059
-0.0117478668320718  0.0496346070571967  0.0122507690232855 0.0524565337635676 1763543190.08959
 0.0248261588328482 -0.0213029849082668 -0.0372426155361182 0.0495698269148356 1763543190.12661
-0.000775265829218819     0.043871828862453     0.051493353892101 0.0676528188614448 1763543190.15855
0.0326631082145005 0.0158810948501669 0.0227115664298344 0.0428357684834643 1763543190.18898
 0.0207820612960136 -0.0150509432754949 -0.0542681027230673 0.060028759260498 1763543190.22606
 -0.045241949100548 0.00831652305504008  0.0228703525071837 0.0513716997766711 1763543190.25794
0.0196523908731405 0.0106613920876109 0.0561905931983614 0.0604753215143186 1763543190.28827
 0.0225077186072547 -0.0347116265243904 -0.0352726696657182 0.0543659418958138 1763543190.32516
0.00881205848736016  0.0174024439125753  0.0967677491069415 0.0987142071646172 1763543190.35721
 -0.0188656921147704 -0.00309160831866788   0.0758830719989939 0.0782541564197702 1763543190.38726
 0.0401112709539946 -0.0559186553617507  0.0352453249797864 0.0773178052452459 1763543190.4237
0.00587534086304939 -0.0451982507678336   0.154783472978974 0.161354655991582 1763543190.45614
 0.0591068101983502 -0.0800718859905823   0.332040067725487 0.346634863383732 1763543190.48582
  0.0460936373209192 -0.00196423430144538    0.172738358746806 0.178793238687608 1763543190.52238
-0.118641881528248 0.0265688558284205  0.377853690315818 0.396932250438128 1763543190.55499
0.00585729215088516 0.00670985588632634   0.371757397408969 0.371864078079137 1763543190.58442
0.0313363685834286 0.0106127930190853  0.254144625705585 0.256289075355728 1763543190.62075
-0.111260369287331  0.133259880400061  0.487649774341982 0.517628600363212 1763543190.65377
-0.0241913645279179  0.0706990526721114   0.430153575802129 0.436595553048602 1763543190.68296
0.0531057467973378 -0.119904328422688  0.285384718815505 0.314072771902952 1763543190.71995
-0.0163717599581538  0.0776674481085603   0.512707503030488 0.518815237520624 1763543190.75273
0.0181158012399687 0.0527160133208242  0.461045498723919 0.464402963178094 1763543190.78175
 0.028244696621343 -0.117964827696001  0.317294736465578 0.339690172435617 1763543190.81829
-0.0671418507690538 -0.0181229699696148   0.555872273354484 0.560205725113102 1763543190.85176
0.0264939847757874 0.0443804861972048  0.423909212422208 0.427048684766522 1763543190.88052
 0.0376263299230544 -0.0662904569737925   0.251756213780256 0.263042499543786 1763543190.91744
-0.0492034649790873 -0.0310959449918186   0.433658639166801 0.437547430668818 1763543190.95106
0.0647893164848198 0.0407344352080115   0.57241369071314 0.577507041565836 1763543190.97973
0.0399120701455134  -0.01426115421934  0.272553126569843 0.275828861191074 1763543191.01707
-0.116672743398092 0.0134467589813004  0.463285801346371 0.477940454563419 1763543191.05068
0.0114793542624219   0.13185977921483  0.439851679224908 0.459334602077655 1763543191.07924
 0.0664883386026607 -0.0821954746695516   0.261726725468868 0.282272340215883 1763543191.11711
 -0.0701855037875072 -0.00226772370832284     0.43220706974635 0.437874523866655 1763543191.15059
0.0177038368667479 0.0751396629791129  0.473829157113694 0.480076519862712 1763543191.17888
 0.0363896775327265 -0.0896195091174829   0.237165227080853 0.256131235857143 1763543191.21761
-0.0749446066118607  0.0140259277770432   0.428898000540133 0.435622446136029 1763543191.25071
-0.00540654214687162   0.0775792033719407    0.464166131353589 0.470635698804891 1763543191.27915
-0.0125362190186518 -0.0557850298009682   0.264456269967155 0.270566526130117 1763543191.31759
-0.0403595056176441  0.0369406595917234   0.435297434149613 0.438722415887322 1763543191.35105
-0.00578140203895724   0.0733855053607765    0.420716890161343 0.427108368770297 1763543191.37968
0.0190583831706567 -0.113831824374334  0.247174241057605 0.27279298314266 1763543191.41868
-0.0328764937170603  0.0397748010281875   0.476044041211112 0.478832776456005 1763543191.45166
0.0463723112147445 0.0445158989430716  0.388473787055323 0.393756193265848 1763543191.4801
 0.0113139814017114 -0.0960036507877458   0.246927820755458 0.265175518860194 1763543191.51981
-0.0399295715599111 -0.0566228627046144   0.486019956956795 0.490933720400329 1763543191.55237
-0.0509979237021653   0.122731539160963   0.327600453618725 0.353533415871747 1763543191.58078
  0.012587008183511 -0.0543912608174326    0.27204160333761 0.277711137649931 1763543191.62089
-0.0910782677529881 -0.0226012114953279   0.497488700889999 0.506261862212789 1763543191.65329
-0.0435676899144005   0.151602253429883   0.321448625874916 0.35806508615944 1763543191.68138
-0.0274067803829355 -0.0846906511069208   0.257609761365305 0.272555365286691 1763543191.72215
 -0.162691881816317 -0.0120534940381202   0.538542471410505 0.562709453128696 1763543191.75427
0.0747248949265604 0.0615099213409933  0.249819213550611 0.267912149415077 1763543191.78262
 0.0212603703765264 -0.0294868756648984   0.133930560235584 0.138776345787175 1763543191.82324
-0.00410888105266864  0.00837191225802395    0.278827424801142 0.278983341150682 1763543191.85557
  0.0879610071606561   0.0380019682368767 0.000926304022142286 0.0958235169973166 1763543191.88358
 0.0438607427470377 0.00236481446288224 -0.0181013116060722 0.0475080475669734 1763543191.9249
0.00864226364915946  0.0674776311696286  0.0910901978181242 0.113689681008397 1763543191.95688
-0.0402979800495186   0.047394993084614 -0.0129953882956108 0.0635538565510836 1763543191.98468
-0.00878653213336987  -0.0323853808284249  -0.0463547506498859 0.0572256843222162 1763543192.02577
 -0.105597643875721  -0.003098436133589 -0.0463747959316006 0.115373672890634 1763543192.05795
-0.0212455723453158  -0.126943616164145 0.00270484979689639 0.128737610050574 1763543192.08527
 0.00197768022420049  -0.0179275612309352 -0.00723648243602141 0.0194338711739316 1763543192.12604
-0.0600736587789901  0.0209061919097974  0.0882396099438681 0.108775650318947 1763543192.15847
-0.00217418174704818   0.0560670834077232   0.0605469089777278 0.0825480047903948 1763543192.18531
 0.0437361772586599 -0.0398807429957779  0.0890782635997603 0.106949819583974 1763543192.2257
0.0074711146909128 0.0021393694954925  0.213640744422186 0.213782043525243 1763543192.25833
-0.0240838460176499   0.146832190945889    0.36226714929238 0.391634027369175 1763543192.28477
 0.0228855974498219 -0.0948076888801532   0.207620289712818 0.229387081462461 1763543192.32453
-0.0696817609308136  -0.122107507376331   0.353449289977711 0.38038426853621 1763543192.35753
-0.0507136279009934   0.177592843583651   0.576910034222684 0.605752653922231 1763543192.38317
 0.0157926988648173 -0.0978187775059094   0.364520080586634 0.377747020797083 1763543192.42299
-0.0758765012778879  -0.102879206190504    0.52980122698421 0.545005242751421 1763543192.45637
0.122363303655271 0.276738408794214 0.653494626329122 0.720147312446852 1763543192.48222
 0.0564071913596261 -0.0698461002977317    0.34316137850746 0.35471112283522 1763543192.52153
0.0524110395434752 0.0161324732307426   0.47780523726926 0.480941803673274 1763543192.55544
-0.0398066984290684    0.13883450753658   0.703659631164173 0.718328942931334 1763543192.58086
0.0131561612357074 -0.102231590615237  0.332101856719657 0.34772981743708 1763543192.61999
0.0099752816988199 0.0341342226380837  0.496979276825034 0.498249990460221 1763543192.65384
 -0.0809601200379313 -0.00441567352466194    0.647118642908577 0.652178332367053 1763543192.67983
 0.0470066723691988 -0.0851366438950392   0.315479552567424 0.330129101215082 1763543192.71835
-0.0610135568757207 -0.0336829985620646   0.446724941596207 0.452128711717021 1763543192.75273
-0.110982769428094  0.034573734897434  0.670325193610323 0.680329613822156 1763543192.77897
 0.0309258453461845 -0.0853438753323231    0.29350922196538 0.307225728652139 1763543192.81716
-0.0609653329884997 -0.0938111074382063   0.461633406495039 0.474997576517392 1763543192.85166
-0.0884444717476256   0.144289392007522   0.638949809268574 0.660983140475582 1763543192.87858
 0.0632946072270005 -0.0579527114910207   0.277196890042072 0.29017725603875 1763543192.91614
-0.0493212772683105   0.035674005993085   0.457096900220684 0.461132084425201 1763543192.95086
-0.0703793311601224  0.0579537178673924   0.639480541669121 0.645946783289949 1763543192.97819
0.00304411532809409 -0.0548420960726308   0.275571526455806 0.280992149948986 1763543193.01556
7.68381235234817e-05   0.0497033011886068    0.384713758674018 0.387911201393094 1763543193.05031
0.0547565787885122 0.0475732536049402  0.616658035645969 0.620909518614369 1763543193.0774
-0.0140807676047334  -0.110341911101584   0.313415558197035 0.332570169260334 1763543193.11472
-0.0111718239335128  0.0790758364273475   0.418291939126036 0.425847324629973 1763543193.14985
-0.00180606622610638   0.0813926345826841    0.606932021882399 0.612367946602188 1763543193.1774
 0.0173780008642326 -0.0826652504376147   0.281729157629789 0.294120480080428 1763543193.21463
-0.038466254588048  0.104456705074847  0.410171807555849 0.425007961914548 1763543193.24967
-0.0289781681784324 -0.0475223515331788   0.585294310107616 0.587934977332163 1763543193.27797
 0.0869997293667666 0.00289219018816222   0.301447579472175 0.313764180306816 1763543193.31489
 0.061419254495383 0.0888383284018538  0.449241173449022 0.462041345918153 1763543193.34991
-0.127874231684219 -0.114816908451263  0.578613664803933 0.603596317660216 1763543193.37834
  0.0737630012980508 -0.00493982524779797     0.26210508122601 0.272331518261233 1763543193.41457
0.0781979791938696 0.0489025994478726  0.418708241452473 0.428745821720733 1763543193.44993
-0.0946369522846478  -0.124927831081526    0.57762231754089 0.598507023716322 1763543193.47884
0.00042396152998342 -0.0582690453111321   0.282477274787769 0.288424811963837 1763543193.51479
0.000834463337208448    0.022324573104239     0.41821857496072 0.418814827024454 1763543193.55036
-0.00455744690271334  -0.0360172039360322    0.574740870111842 0.575886340416717 1763543193.57944
 0.0097976953841802 -0.0730417079509886   0.253496434797857 0.2639915309067 1763543193.61524
0.00113784965387907 0.00636112157942627   0.418920506738187 0.418970344458128 1763543193.65094
0.0435757053325873 -0.107189160451394  0.593408041888468 0.604583709995078 1763543193.68019
 -0.015744593971185 -0.0544802386591764   0.286889015763817 0.292440243485075 1763543193.71607
0.0193547983920446  0.043437622464236  0.422575536188435 0.425242894180591 1763543193.75158
-0.0287353699903135  -0.014619939766152   0.547580460871439 0.548528782522324 1763543193.78174
-0.051726345397533 -0.044973967001022  0.260684707158978 0.269545523172907 1763543193.81715
-0.00148026911244188   0.0191669071092158    0.430017719947265 0.430447210460729 1763543193.85251
  0.114841009649423 -0.0850041622151323   0.556062032153549 0.574124680443133 1763543193.88278
-0.0299433701792302 -0.0416094759497939    0.29004936235918 0.294544710547438 1763543193.91785
-0.0370230969966717    0.13738604429729   0.462519174473748 0.483910757924185 1763543193.95335
-0.117134097410402 0.0847344173537163  0.529402086733853 0.548786741547736 1763543193.98367
-0.0198451749648129 0.00508120786570841   0.271944458455748 0.272714939318601 1763543194.01824
-0.00945622090965912   0.0783245011743499    0.416346672602553 0.423755471215795 1763543194.05401
-0.00862764676838343  -0.0916364053575175    0.567888187787162 0.57529875795433 1763543194.08454
 0.112557443661321 -0.093105712979919  0.290535719182508 0.325190491918149 1763543194.11907
 0.0257062327530367 -0.0376645785696925   0.409411193785141 0.411942904390596 1763543194.15445
-0.00251367747061513  -0.0532674078908062    0.499084641185607 0.501925506808727 1763543194.18532
-0.00441067939614636  -0.0841542937519745    0.352345589740425 0.362282781621149 1763543194.21964
 0.0255005398357386 -0.0492501216198236   0.399681427981725 0.403510961294725 1763543194.25473
  0.113246605686223 -0.0714081450453307     0.4440382025984 0.46378210643047 1763543194.28557
  0.148179562970746 -0.0525046352414748   0.211948894424074 0.26388681939731 1763543194.31958
-0.0174808653912041  -0.072210021350868   0.378644731290011 0.385864873203046 1763543194.35468
 0.104553913267785 -0.123702314551776  0.539604727065222 0.56338889310689 1763543194.38547
 0.118277926564055 0.0203694403188987   0.32207611259301 0.343711513211621 1763543194.41926
-0.151894327763977  0.065966870046107  0.400907965988586 0.433763428545625 1763543194.45423
  -0.2448006818394 0.0651351011369446  0.492173134421168 0.553538028933073 1763543194.48449
 -0.130610288093319 0.00937416990666973   0.349377905944642 0.373111033848535 1763543194.51852
-0.0487348345034341   0.163373365079897   0.410810760665018 0.44478244298733 1763543194.55348
 -0.07829997568419 0.0556674179905595  0.574850513262416 0.582823180918487 1763543194.58325
0.0401658075909303 0.0221247450097137  0.417780947784112 0.420290038869074 1763543194.61765
-0.00107320844459991  -0.0691584155296679     0.48532011898531 0.490224087644472 1763543194.65263
-0.145737726150287 -0.108670191078654  0.593860432064193 0.621062724709829 1763543194.68129
-0.0754798452880201 -0.0988074004572719   0.265064805205434 0.2927788591897 1763543194.71653
  -0.104009883888825 -0.00988127061353191    0.389863902933442 0.4036205622438 1763543194.75177
 -0.115332676056622 -0.0651312782051193   0.509463858096191 0.5264001636334 1763543194.78101
 0.0205278592164097 -0.0327842544206411   0.268875206124698 0.271643289647517 1763543194.81646
0.0334037302869226 0.0326566155597204  0.319394028646748 0.322792207576479 1763543194.85099
 0.115136515363423 -0.080873402393982  0.555738438474885 0.573273177798608 1763543194.88041
 0.196983404846577 0.0340729174994876  0.252333745632734 0.321925060653753 1763543194.91598
-0.00268482636022997   0.0846069264140889    0.387034581976753 0.396183427134129 1763543194.95035
-0.192786811763956 0.0314557413586316  0.498959531894498 0.535832840466977 1763543194.98015
-0.0135142787228256 -0.0915151684439219  0.0849922075002161 0.125623792015993 1763543195.01556
 -0.128806354155758 -0.0688422929412709   0.303333641747484 0.336662496254188 1763543195.04992
-0.0799996814485025  -0.036224408280869   0.245058063083397 0.260318288004026 1763543195.07895
  -0.017336674097941 -0.00733064802709538   0.0853224280015664 0.0873739972151775 1763543195.11532
-0.00487794621094309    0.134876056736848    0.159711087348643 0.209100398044107 1763543195.14967
-0.044639498772427 0.0453234568622482  0.200440517079689 0.210293370032844 1763543195.17908
0.0153452341517563 0.0527420289571459 0.0612538759396396 0.0822753617270529 1763543195.21519
0.0875018599573149 0.0998364774714352  0.127229667003394 0.183878454136662 1763543195.24951
 0.194757745441604 0.0950041981506829  0.169446393236093 0.275079001845781 1763543195.2803
 0.149943126875523 0.0856392820216101 0.0363229011867902 0.176455039806211 1763543195.31639
 0.243366356182523  0.165106699310178 0.0999489192612662 0.310607778299507 1763543195.34964
0.0708008594925979  0.185589295861921 0.0301578238214351 0.200912027467394 1763543195.38069
0.0592891030444481 0.0503275648713612 0.0954532572520528 0.123123457739469 1763543195.41631
 -0.118531417919281 -0.0680831196133475   0.258536356260841 0.292448381289542 1763543195.44953
-0.0899606628381866   0.045254168530547   0.129401507027353 0.163968322088833 1763543195.48068
-0.0631641950065474 -0.0695404026300703  0.0181502677390082 0.0956818443999441 1763543195.51676
 0.0312416092327873 -0.0145774357168641  0.0661017646893435 0.0745518817641702 1763543195.54961
-0.0114836497525039   0.012662158842233   0.118966013756585 0.120187840097557 1763543195.5808
-0.000889901821597158    -0.136765054574274    0.0566857616413543 0.14804981476117 1763543195.61691
 -0.026274142774712 -0.0710205275693762   0.130515080807392 0.150892121175821 1763543195.64991
-0.0172672814576669  0.0181931845902932   0.129036660710272 0.131451933351064 1763543195.67988
-0.0251625924475923 -0.0748635103076883  0.0623880327109483 0.10064774145412 1763543195.71653
-0.0192141478368287 -0.0367847666548491    0.21478826341943 0.218760829760909 1763543195.74961
-0.0763797341144349   0.101545472671245   0.138127622937101 0.187682143587695 1763543195.78007
 -0.108214640089044 -0.0172130220439561  0.0195868549599028 0.111311910165568 1763543195.8164
-0.0322980725610389 -0.0120741112169146   0.146476398667872 0.150480181484294 1763543195.84958
 0.00955920731426562 -0.00668533466314925    0.158320364954632 0.158749520009993 1763543195.87953
-0.0437788021264647  -0.104148105393688   0.023323866767048 0.1153577658144 1763543195.91637
 -0.190464590463689 -0.0492689655477881   0.100160142912918 0.22076287145937 1763543195.94952
 -0.116090558104081 -0.0817107187009493   0.156707369572943 0.211449424000193 1763543195.97977
0.0946458203091176 0.0182888903847011  0.150334493737871 0.178585483231172 1763543196.01674
0.337543599631042 0.165643365544822 0.124473179399452 0.396064361677121 1763543196.0497
 0.333599231382056  0.252212167314876 0.0741054797340472 0.424724671577928 1763543196.08056
 0.178425569601181  0.128451497590177 0.0527560988760963 0.226094398624312 1763543196.11685
-0.226836790778054  0.231748129380838  0.112919450718032 0.34338451839369 1763543196.14958
-0.210959190046583  0.267113861344081  0.154878465218266 0.37395311708237 1763543196.18046
-0.0605341918269785  0.0549738078199627  -0.027386596038523 0.0862353382839592 1763543196.21708
-0.0538214521260788  0.0240441092923166   0.159852694328472 0.170375326220355 1763543196.24942
0.0740067957499481 -0.255084226213736  0.196575743394829 0.330434548997929 1763543196.28052
   0.112830223873537   -0.360130862693922 0.000185136547840225 0.377392278616776 1763543196.31717
-0.0210813747742161  -0.291059817210777   0.107628516104637 0.311037198797874 1763543196.34925
0.0222485679217829 -0.175980593325357  0.143185003744467 0.227960771403805 1763543196.3804
0.00904886065689258  -0.169016446367763   0.072317697068055 0.184060561585587 1763543196.41695
 0.0461941789690488 -0.0134069568539868  0.0715560879473688 0.0862201970830545 1763543196.44903
 0.0241125410771901 -0.0264755672375872   0.117853575786295 0.123174005469365 1763543196.47987
-0.0642711583134223 -0.0659425902986183   0.142134980624127 0.169356309959981 1763543196.51635
-0.0737257870385592  0.0236307592437682   0.197950135499939 0.212551548103833 1763543196.54875
-0.0185360303104802  0.0664064746926026   0.160359503821572 0.174552498597617 1763543196.58078
  0.0392550177596793   -0.018874408336568 -0.00664160082406284 0.0440603060687785 1763543196.61733
 0.217468273115193  0.123879313774172 0.0123195389431479 0.250579937809545 1763543196.64891
0.0949556941982597 0.0990725625659691 0.0994333474654454 0.169466654838777 1763543196.67968
-0.0178970901508788  -0.122092584648783  0.0069602155943752 0.123593485520917 1763543196.71624
 0.055800381328578 0.0209142806834685  0.118191533901171 0.132364377303085 1763543196.74826
0.00884329290184314 -0.0703431048552547    0.14568139792157 0.162016745833287 1763543196.77884
 0.0287307111632104 -0.0234077821951703  0.0306817300813394 0.0481118134352107 1763543196.81543
 0.0260300657286652 -0.0586769376878149   0.057166398395298 0.0859566428133874 1763543196.84787
0.0225223411391295 0.0534564549134376  0.135853699350409 0.147719585869616 1763543196.87926
0.00342778046360834  0.0147822957430069  0.0703870686755164 0.0720042039263839 1763543196.91571
-0.0223444931484926   0.141481521922071   0.196795126440311 0.24340217585327 1763543196.94755
-0.173661720457807  0.165692467708364  0.116734647065252 0.266907034064488 1763543196.97799
 -0.190635088684251 -0.0789909236855379 -0.0672340552801641 0.217029309660614 1763543197.01484
-0.0907109638133024 -0.0301482023256713   0.124911584314685 0.157290485902398 1763543197.04715
-0.0697958680895223 -0.0226514240526771    0.23635354319351 0.247482418757597 1763543197.07748
 0.0227021957606804 -0.0012658894913867   0.103382914324305 0.105853763007024 1763543197.1148
0.113136892358344 0.115556874393523 0.174265412974971 0.237743100407648 1763543197.14698
  0.11733894781341 0.0649556915265524 0.0775599393504866 0.154929708989922 1763543197.17709
0.0418981877663676 0.0368878392089702 0.0217734055145939 0.0599187116626817 1763543197.21484
-0.0762253111922634 -0.0653030458795719   0.135933023213246 0.168975065223837 1763543197.24649
 0.0308593315292402 -0.0760486853963411   0.240128256881103 0.253766192873874 1763543197.27736
-0.0111866288269531 -0.0457900039596188   0.171503752472714 0.177863437050328 1763543197.31504
0.0897933901779647 0.0229925838929906  0.125104099503038 0.155700184798203 1763543197.34627
-0.00383322648801466   0.0612043693258515    0.149285375629147 0.16139018503806 1763543197.37661
-0.0657230758457714 -0.0222545868740843  0.0590301769509012 0.0911007745654223 1763543197.41401
 -0.173543779882635 -0.0653038221705266   0.164088618888268 0.247602721258655 1763543197.44598
-0.0713553126276608 -0.0618001036689867   0.138001083588544 0.16719788433261 1763543197.47518
 -0.059671250330378 -0.0806492032695223  0.0042822832303682 0.100415586706768 1763543197.51299
-0.117353822988085 0.0113812494981044   0.18862547297682 0.222443299889625 1763543197.54563
-0.0667254112386063 -0.0269853098756269   0.242416252926128 0.252875714802329 1763543197.5749
 0.099884310781342 0.0204382758896797  0.104366494959885 0.145900527524125 1763543197.61305
0.0584003505209901  0.105983690143695  0.202738415466884 0.236105926701284 1763543197.64554
0.0389244809691559 0.0767377200079756  0.210033275723132 0.226975262532572 1763543197.67487
 0.0302234175120282  0.0211786012365311 -0.0365358089884499 0.051931237756122 1763543197.71301
-0.0260312779476879   0.187395101290276   0.136768213973613 0.233452555721103 1763543197.74558
-0.0156521415646525   0.228492160245181   0.148311821405166 0.272855370475986 1763543197.77432
-0.0276881629335755   0.119261632739192  0.0290793058445583 0.125839490775573 1763543197.81286
-0.0607981961061877  0.0471646019867059   0.201123327683109 0.215340458968253 1763543197.84533
-0.246734145556863 -0.193937080650911  0.302068164534168 0.435585245227745 1763543197.87482
-0.134967807232078 -0.178644203496908  0.177886716823384 0.285961089056331 1763543197.91303
0.0321172148533707 -0.103119226502182  0.178209138992203 0.208383270884897 1763543197.94542
-0.0164220073500395   0.118684272995516   0.101862935858054 0.157263144708164 1763543197.97429
-0.035874018933616 0.0597221481937836  0.141209799758387 0.157460749925604 1763543198.0129
-0.0617819869615903   0.219972866260781   0.264516643297032 0.34953416197138 1763543198.04528
-0.0346344065235869   0.170213418041797   0.299039002600352 0.345827232694197 1763543198.07464
-0.0966221470247436  0.0592388675910995 -0.0734528334780293 0.135057030454168 1763543198.1131
 0.181886627221501  0.167841876719839 0.0474039095881793 0.251993593940591 1763543198.14555
0.187479329538909 0.111731965002799 0.058608000519633 0.225981036223517 1763543198.17436
0.0640354674250822 0.0217211311862911  0.047896354374305 0.0828638002429881 1763543198.21327
0.0227011570198091  0.087079901417199  0.126798299174852 0.155486528144731 1763543198.24563
  0.113809320163775 -0.0535030470119609   0.232196248419939 0.264064831388049 1763543198.27488
-0.00213307947252216   -0.201690643158033    -0.13028095644105 0.240118289967116 1763543198.31307
-0.0147184441322761  -0.186108739545463  0.0416819871879309 0.191286391541089 1763543198.34572
 0.118955793362728 -0.148211452266939 0.0886173163062746 0.209690591364891 1763543198.37535
0.0689934521019615 -0.187734666995378  0.113754811913441 0.23009684669346 1763543198.41382
-0.0267183420031918  -0.119474933674091   0.119247659963861 0.170903873515741 1763543198.4458
0.00427650682589838  -0.167226637337532  0.0824594958541733 0.186500952282756 1763543198.47563
-0.0069813402248714  -0.272551941251186 -0.0338183360626291 0.27473074026248 1763543198.5135
-0.0737980721527672  -0.246186961891822 -0.0679244207052838 0.265834351781591 1763543198.5458
-0.0175660620713572  -0.142094187350268 -0.0259283973657406 0.145504661112225 1763543198.57593
 0.0120937638514793  0.0439888568170081 -0.0214708578291192 0.0504209915023578 1763543198.6135
-0.0691098752461324  0.0885154401623238    0.10453133445419 0.153420852189132 1763543198.64578
-0.0335437150621456    0.14635383621072   0.103202991751324 0.182196277953718 1763543198.67725
-0.0357076215672803  0.0779211157552961 -0.0722638585137215 0.112110658573721 1763543198.7155
-0.0528114653790236   0.265552728431221  0.0788688253024952 0.282006372370096 1763543198.74767
-0.00088048424966434  -0.0695091060939467   0.0205635864264605 0.0724924283578082 1763543198.77513
 0.0689419698345146 -0.0511142769193275   0.014907503758532 0.0871085425085247 1763543198.81329
 0.0199423401130879 0.00989734536813035  0.0977344031300136 0.100238056294514 1763543198.8455
-0.070499131313736 0.0484167272147001 0.0602695383618082 0.104626594346368 1763543198.87477
 0.0191392576117355 -0.0835584149775089  0.0993612350990174 0.131228712315119 1763543198.91305
0.0700525427245145 -0.042140271347323 0.0944091948895068 0.124884976242464 1763543198.94521
-0.132007765670593  0.125931417022743 -0.114926163101063 0.215621879585144 1763543198.97483
 -0.128769401437985 -0.0107019360840377 -0.0384631212653576 0.134816548984601 1763543199.01312
-0.224992436518226 0.0342808762763097 0.0398776428384758 0.231056273160961 1763543199.04535
  -0.145912151637922   0.0018335925333503 -0.00957761467914783 0.14623764481189 1763543199.07388
0.00320791692969576   0.150188134462362 -0.0283509788655456 0.152874276668598 1763543199.11242
 0.125972384934618  0.196922971113298 0.0348590791449183 0.236353239277646 1763543199.14479
 0.205988149605223 0.0534834599072976  0.036773128579036 0.215971899206655 1763543199.17402
 0.256678695669946 0.0740920290061802  -0.03073525664502 0.268920504190574 1763543199.21272
0.153470488173946 0.201464117775307 0.108546492319953 0.275541870659067 1763543199.24462
 0.220478270606434  0.272195687971824 0.0249020800237047 0.351171288617913 1763543199.27304
 0.0411995515246093 -0.0285631104212929   0.118525843775025 0.128691996508523 1763543199.31178
-0.199843434709839 0.0412974146772965  0.107574409804751 0.230684044746261 1763543199.34407
0.00601255012059757  -0.314331056272781   0.130543641669064 0.340414168442995 1763543199.37317
 0.0159935541116976 -0.0569886108272769 -0.0958925498943453 0.112689292580911 1763543199.41162
 0.0397016937358264 -0.0769331098959859 -0.0551725578606169 0.102659334814932 1763543199.44393
  0.103104240554523  -0.155374465019317 -0.0235628303940591 0.187954557743469 1763543199.47324
 0.0843038665221082  -0.123950913425034 -0.0238875299035146 0.151794548434287 1763543199.51131
-0.0309859716432646  -0.138432252181807  0.0629594253576486 0.155201508124663 1763543199.54358
-0.0715406567748718  -0.149924682622335   0.150004403774611 0.223823138176026 1763543199.57316
-0.0634374401353546 -0.0130193103593436  0.0174612215037042 0.0670723900689474 1763543199.61121
0.0249397293694967 -0.119226947139173 -0.105507270643613 0.161148500408212 1763543199.64339
-0.0287420803860375 -0.0885359000304978 -0.0646488496399899 0.113332195509051 1763543199.67312
-0.0117652468915165  0.0106849727547809 -0.0786260587866258 0.0802162502084627 1763543199.71127
-0.137245431628975 0.0273194807442896 0.0867015932027318 0.164620256332728 1763543199.74335
-0.00585179823936059    0.136889313125075   0.0929972549903001 0.165594133429358 1763543199.77321
0.0121122838582864 0.0969845411199122 0.0140596371816063 0.0987440227769866 1763543199.81208
  0.108078180743307   0.217273839426223 -0.0440031573741964 0.246627436248876 1763543199.84309
  0.183361864588954   0.223363161294941 0.00486583025851513 0.289026558491279 1763543199.87195
  0.151820024957488   0.149570816164109 -0.0752860077955318 0.226028166377288 1763543199.9113
-0.0242356194562151   0.186497704049883  0.0844218088330594 0.206145096165177 1763543199.94287
0.0879071109650199  0.194129885680696  0.031180706674065 0.215374810832907 1763543199.97293
 0.0832853137701448  -0.269928963237086 -0.0237647084663778 0.283483421124643 1763543200.01176
0.0575862154898903 -0.128575043195366 -0.016844014052834 0.141885287315318 1763543200.04282
 0.0540352564733283 -0.0101893826613864  0.0288896363339658 0.0621147611173651 1763543200.07199
-0.00821828344612444   -0.052124104654495  -0.0185510480394271 0.0559339239835247 1763543200.1109
 -0.170298586661184 -0.0420837225759784  0.0569615883972755 0.184437715441797 1763543200.14259
-0.0884090781440406  -0.137787203213837  0.0454449512107643 0.169902095508911 1763543200.17167
0.0241508941044625 0.0867239985529233 -0.110356014329197 0.142417581462677 1763543200.21029
  -0.132405049375293   0.0797600049228801 0.000624244407504275 0.154574076631406 1763543200.24256
-0.0962017094799255   0.174400192682373  0.0715219308046543 0.211626044475945 1763543200.27112
-0.0237524073567594  0.0430884755306172 -0.0657795455229476 0.0821446418702983 1763543200.3098
-0.144055085167843 0.0644529732056095  0.107394392531068 0.190891615491291 1763543200.34229
-0.0893870754903957   0.119200732606774  0.0973687629769605 0.177987471251155 1763543200.37162
0.0228996664791691 -0.200677633239795 0.0543268302081803 0.209158580240093 1763543200.40928
 0.0709004372177127 -0.0844411056051847 -0.0697185648941503 0.130452484086692 1763543200.44231
-0.0180963088872825 0.00232905304383457  0.0399987685019781 0.0439636482232739 1763543200.47124
-0.000581728418668497   -0.0648044360312406   -0.0883292120470131 0.109553653695924 1763543200.50922
 -0.040302816745162  -0.112087456576865 -0.0862198226291339 0.147043438390375 1763543200.54227
-0.0636900152415488  0.0430469250653108 -0.0894341725890717 0.117931874511258 1763543200.57104
-0.0732025633108504 0.00374679237726871 -0.0138683934482375 0.0745988342082672 1763543200.60943
  0.0213179263935983 -0.00975578061857968   0.0302111006282517 0.038240552328269 1763543200.64213
   0.11557926408795 -0.0106461833235403 0.00738182339626255 0.116303047350979 1763543200.671
 0.0732193125928979  0.0328839734531168 -0.0703280220600963 0.106716700349698 1763543200.70889
0.0299210466427745  0.138015386580348 0.0561756839318654 0.151984286787598 1763543200.74212
0.0167816580466121  0.180991381339928 0.0765574670731719 0.197232223358123 1763543200.77082
0.00422594229110393   0.105838660379868  -0.101088105789729 0.146418870885581 1763543200.80972
-0.0399424166442671   0.175440748146813 0.00310786312200636 0.17995697144285 1763543200.84208
  0.061664409386423  0.0635540697330475 -0.0519218639140485 0.102652321536916 1763543200.87081
  0.0674424593147495   0.0373465606797251 -0.00530458062047627 0.0772747661826625 1763543200.90964
-0.0487698425812182  0.0782389715395088 -0.0124884653581677 0.0930365303521097 1763543200.94196
 0.0248829598785511 -0.0390065124345521 -0.0155230845511695 0.0488020067067658 1763543200.97066
 0.0301226455612774  0.0518101172270834 -0.0359172558922064 0.069869244260409 1763543201.00957
-0.0285605972649288   0.129687241998503 -0.0263814607422236 0.135390065825382 1763543201.04185
 0.0404810012818214  -0.112229657561389 -0.0378407394217044 0.125164408124302 1763543201.07023
0.0383647597542264 -0.159743550594164 0.0184122266543188 0.165314448363716 1763543201.10895
 0.0808458948258931  -0.221910163341234 -0.0309569834306975 0.238198476333206 1763543201.1415
 0.0931877540415935 -0.0120583965242452 -0.0302290065276495 0.0987074225461344 1763543201.17064
 0.0675805858747281  0.0153703641133965 -0.0370247785549137 0.0785761917325489 1763543201.20925
  0.033730926399471  0.0234690250217136 -0.0357753505207307 0.0544834491943883 1763543201.24138
0.0939706784008574  0.050557367747608 -0.024824620900523 0.109557280157637 1763543201.2702
0.00818269542915341   0.157588740147346  -0.126775285651256 0.202418231831205 1763543201.30964
-0.198753729820001  0.147891916204168 0.0492995929478941 0.252597533362324 1763543201.34125
-0.0914097036162206  0.0418200112367284  0.0201214310671113 0.10251594628756 1763543201.36968
-0.0420243006735578  -0.133868584873526  -0.165293471536392 0.216815063119918 1763543201.40837
0.00687204085981293 -0.0600027796184497  -0.229269324739048 0.237090661506982 1763543201.44134
 0.0681798420615122 -0.0614472859597747  -0.208708673440611 0.227999057420628 1763543201.46967
-0.074107799978996 -0.305834023410507 -0.352627453464469 0.472623038826952 1763543201.50792
-0.184744508377921 -0.169191823434733 -0.226499034161714 0.337725064170782 1763543201.54147
-0.0842820427096787  -0.235729110226838  -0.271329281262398 0.369176455102465 1763543201.56932
-0.232653530413105 0.0367423255112162 -0.236326649195549 0.333658431360051 1763543201.60802
 0.0923551470211461 -0.0291830381673221  -0.211979615126232 0.233058962769164 1763543201.64145
  0.108575984428441 -0.0645118995020522   -0.29147349273971 0.31765913577584 1763543201.66946
0.0457747479829466 0.0470163565720525 -0.199874061019937 0.210369925623446 1763543201.70777
 0.030143609132232  0.027426354491887 -0.217515627291388 0.221300452345217 1763543201.74144
0.0169313915780273 0.0346936492407446  -0.19097673723686 0.194839512122272 1763543201.76913
8.03944167646775e-05 -0.00124046479089758   -0.310211636479716 0.31021412705353 1763543201.80762
 -0.023607180218594 0.00538001505212965  -0.236929895498641 0.238163848853749 1763543201.84134
0.0402750042126702  -0.10261211923601 -0.299231888659658 0.318890335647322 1763543201.86889
0.0273556724089286 0.0327205332660412 -0.230589676914973 0.234500672088398 1763543201.90755
-0.0933603902444923 -0.0779213540535724  -0.247536643960627 0.275793926668874 1763543201.94115
0.0528167834911822 -0.100007007882758  -0.32891909616004 0.347820048391053 1763543201.96851
-0.00868247003284474   0.0910292413723969    -0.16472605093966 0.188404829897964 1763543202.0072
 0.0261606910263348 -0.0390756324720543  -0.217554585497085 0.222578715242215 1763543202.0409
 0.0137587663407124 -0.0640480730237818  -0.231929323334685 0.24100346539368 1763543202.06815
-0.0623363837001765     0.1017072006588  -0.229918938793001 0.259022967735228 1763543202.10684
-0.011723862752384 0.0317078152411524  -0.23444157650447 0.236866391240094 1763543202.14056
-0.0160688384078218  -0.035638479650581  -0.292710883282791 0.295309955795218 1763543202.16747
-0.0125523320297354   0.094353610366895   -0.15091941447912 0.178428793907746 1763543202.20619
-0.0346266861852401  0.0285853574676028  -0.159618089802301 0.16581334279803 1763543202.24012
 0.00687304394584298 -0.00971256528702524   -0.183155790560055 0.183541865178534 1763543202.26711
0.0303335843897266 0.0755115936430065 -0.172896507045121 0.191089846053732 1763543202.3057
0.0973909885508785 0.0695146766953263 -0.138733502452535 0.183205566590431 1763543202.33956
  0.102775586879449   0.190758157464349 -0.0718434629142471 0.228282673589389 1763543202.36702
-0.0181931764645648 0.00904922910637683  -0.114122083358753 0.115916910446374 1763543202.40501
 0.0346485878363364 -0.0118139540309928 -0.0789607353964811 0.0870338548109403 1763543202.4391
-0.0481641702045733 -0.0910119190439325 -0.0290682773213646 0.10699495990927 1763543202.46645
0.0280821420314554 0.0175253062755387 -0.122274673681519 0.126676118053279 1763543202.50463
 0.0373233195008653   0.048080401523427 -0.0952456223192744 0.113033109132694 1763543202.53863
-0.0593952205662144  -0.022610042076108  -0.100670117240561 0.119052420109886 1763543202.56622
 0.0145086320954439 -0.0117025361545574 -0.0644417532659357 0.0670834504309178 1763543202.60447
 0.0164726030316517 -0.0144622155290685 -0.0670983079348961 0.0705881382129728 1763543202.63825
 -0.0175775168595489 -0.00790700149255728  -0.0831775903669784 0.0853815045007283 1763543202.66622
 0.0163200460424981   0.011182571562183 -0.0916137522476383 0.093725521660134 1763543202.70415
 0.0155880157348389  0.0241267676569428 -0.0727832855009605 0.0782463660525907 1763543202.73816
 -0.114168986196774 -0.0110955992323561 -0.0346361755067603 0.119822094729058 1763543202.76551
 -0.0190641329814047 -0.00825146374586187  -0.0802434703126424 0.0828887347478406 1763543202.80369
  0.045488024178626 -0.0414394301800197 -0.0694572314866617 0.09279382373365 1763543202.83778
-0.00288914826142695  -0.0312551203862975  -0.0778308355015024 0.0839218009989084 1763543202.86539
0.00159352450478909  0.0305925984593259 -0.0306852243331059 0.0433593057279974 1763543202.9036
  0.0495579398361089 -0.00222992845442834  -0.0170991395003912 0.052472302725963 1763543202.93761
  0.052729896731203 -0.0310886636928291  0.0157686917138949 0.0632107479615376 1763543202.96532
-0.0184606546103233 -0.0207905750897562 -0.0209604172723701 0.0348192888129024 1763543203.00376
-0.00448471153173589    0.040443715941297   0.0217969208650375 0.0461618084119319 1763543203.03749
-0.00201083284399001   0.0891910551245892    0.157520492334372 0.181029813202762 1763543203.06524
 0.0219931837488124 -0.0233145908790588 0.00665685582096606 0.0327350577926487 1763543203.10342
-0.0859452058123878 -0.0142262247826156  0.0773137430934575 0.116474798754153 1763543203.13728
-0.0290562441969749 -0.0326964012117585   0.150999527845274 0.1572074342661 1763543203.16536
  0.0220304066359668 -0.00366800002713396    0.130841998973299 0.132734402986091 1763543203.20338
-0.00811540926172094  0.00014682897269531    0.157528452903391 0.157737423905579 1763543203.23712
-0.0849107679270679 -0.0172023035295807   0.198760072120409 0.216820949232307 1763543203.26545
0.000810594846770559 -0.00109501173230847   0.0908824092737977 0.0908926203281079 1763543203.30337
 0.054148703484466 0.0726164181662609   0.17942763060799 0.200996270865763 1763543203.33706
-0.0456103363223844 -0.0739633316991834   0.274125244269222 0.287568299298001 1763543203.36518
 0.0101421083637975 -0.0253402381733785  0.0886956178602969 0.0928003376091185 1763543203.40308
-0.0443088529754948 -0.0504240736721377   0.179762649397211 0.191886611768518 1763543203.43702
-0.0364744825427743 -0.0886593022238778   0.236322568042642 0.255027872817575 1763543203.46547
 0.0829927128071231 -0.0117390329009379   0.150387002603104 0.172168074347368 1763543203.50302
 0.0550383170236988 -0.0133831234730349   0.258037839599212 0.264181473611842 1763543203.53712
 0.0252734269166727 -0.0374665016233049   0.286659374221397 0.290200071814265 1763543203.56578
-0.0162668707867834 -0.0152342254522715  0.0945248968734019 0.0971166764219812 1763543203.60356
-0.0402713115212043 0.00403341017433822   0.188064895650842 0.192370610815256 1763543203.63729
 0.0703690837362679 0.00521885966430714   0.192387368574241 0.204919359819902 1763543203.6662
 0.0186519076156493 0.00262166418820985  0.0271452355633496 0.0330398334530941 1763543203.70379
-0.0346857800012387 -0.0273393581730307  0.0916376179472988 0.101725104387573 1763543203.73764
-0.00999042461349974  0.00593989120621403    0.121862380704583 0.122415402309057 1763543203.76659
  0.0105768481824297  -0.0302355056095216 -0.00663976272686988 0.0327130244093497 1763543203.80429
 0.0135621139860625 -0.0739988055168604  0.0369493659322354 0.0838153315121245 1763543203.83804
-0.0157496729721165 -0.0174649376694157   0.133193764419739 0.135254039225549 1763543203.86686
 0.00941529615530249   0.0297873183948379 -0.00503961440840383 0.0316437964257277 1763543203.90477
0.00460204449318714  0.0474255900380846  0.0706605457342768 0.0852248680107137 1763543203.93842
0.00534610303639061  0.0365418931035542  0.0455688095189227 0.0586549841892327 1763543203.96726
 0.0370747518616118  0.0194643684605453 -0.0304280254603683 0.0517616035163593 1763543204.00496
-0.00153660864580292   0.0630057938861391   0.0374464772821601 0.073309821239697 1763543204.0387
